ncols        360
nrows        54
xllcorner    905472.587581
yllcorner    2018904.18622
cellsize     50.000000000000
2236 2260 2292 2334 2362 2391 2391 2386 2380 2364 2343 2335 2317 2288 2295 2310 2332 2346 2350 2343 2327 2325 2350 2362 2352 2360 2371 2392 2411 2435 2465 2507 2539 2575 2620 2672 2694 2716 2746 2773 2771 2727 2713 2707 2698 2699 2696 2685 2667 2657 2645 2636 2630 2620 2616 2611 2626 2642 2660 2714 2740 2782 2817 2850 2838 2827 2801 2788 2775 2769 2756 2747 2758 2762 2754 2733 2714 2672 2658 2644 2642 2638 2620 2608 2602 2574 2560 2539 2532 2530 2529 2504 2481 2461 2443 2439 2435 2421 2391 2396 2405 2422 2452 2484 2505 2531 2564 2561 2539 2505 2473 2448 2409 2382 2357 2343 2340 2343 2354 2397 2423 2431 2439 2440 2446 2467 2502 2519 2535 2574 2595 2613 2617 2595 2569 2553 2524 2499 2492 2483 2456 2417 2373 2331 2330 2337 2356 2382 2411 2433 2469 2493 2520 2545 2543 2543 2540 2549 2574 2589 2616 2666 2699 2749 2766 2813 2853 2885 2918 2952 2960 2985 3019 3046 3066 3104 3134 3169 3204 3275 3278 3311 3355 3341 3319 3293 3202 3125 3046 2974 2946 2925 2903 2841 2816 2799 2777 2766 2753 2731 2694 2671 2613 2572 2554 2543 2515 2501 2493 2486 2490 2504 2524 2537 2553 2590 2596 2615 2591 2596 2598 2585 2583 2574 2586 2592 2592 2580 2579 2580 2557 2540 2522 2517 2504 2483 2469 2467 2450 2448 2442 2430 2386 2377 2366 2348 2318 2280 2235 2197 2167 2159 2151 2135 2115 2111 2105 2110 2119 2126 2129 2136 2136 2137 2137 2135 2128 2128 2128 2125 2121 2119 2115 2114 2105 2100 2096 2096 2089 2077 2073 2053 2053 2048 2029 2018 2003 1994 1992 1981 1967 1958 1956 1947 1941 1936 1927 1917 1922 1913 1893 1874 1843 1827 1808 1776 1751 1736 1715 1703 1692 1688 1691 1702 1711 1713 1716 1724 1727 1733 1743 1750 1757 1773 1785 1802 1816 1839 1849 1864 1897 1908 1909 1913 1922 1928 1947 1974 2008 2033 2051 2080 2105 2132 2171 2202 2250 0 0 0 0 0 0 0 0 0 0 0 0 0
2238 2261 2301 2338 2359 2390 2406 2407 2398 2388 2358 2341 2329 2315 2300 2318 2323 2334 2348 2341 2335 2337 2351 2359 2356 2363 2376 2399 2437 2476 2515 2547 2571 2600 2647 2683 2708 2736 2772 2791 2780 2753 2728 2711 2701 2695 2689 2685 2672 2659 2648 2640 2638 2633 2627 2623 2647 2660 2681 2724 2754 2793 2828 2855 2830 2808 2784 2763 2753 2745 2748 2753 2763 2764 2761 2746 2736 2696 2682 2674 2668 2654 2636 2629 2605 2582 2570 2554 2545 2546 2528 2503 2495 2481 2467 2451 2439 2419 2398 2405 2417 2433 2478 2496 2522 2558 2576 2573 2557 2510 2484 2462 2423 2417 2397 2384 2390 2388 2375 2406 2425 2431 2436 2437 2446 2456 2483 2498 2520 2545 2585 2613 2628 2613 2602 2582 2561 2534 2535 2516 2476 2457 2425 2381 2353 2360 2358 2382 2415 2447 2463 2492 2523 2546 2565 2573 2570 2585 2597 2608 2638 2680 2721 2765 2785 2832 2857 2889 2925 2943 2959 2978 3015 3048 3068 3078 3124 3157 3187 3256 3280 3298 3336 3339 3324 3306 3217 3158 3103 3041 2966 2939 2895 2859 2826 2800 2780 2766 2749 2716 2672 2636 2606 2582 2545 2531 2514 2496 2488 2486 2483 2471 2475 2491 2510 2535 2557 2564 2577 2582 2585 2576 2572 2549 2546 2546 2549 2547 2547 2541 2535 2526 2518 2510 2501 2463 2452 2444 2428 2417 2413 2405 2380 2367 2355 2340 2308 2263 2241 2198 2178 2155 2137 2114 2101 2101 2086 2091 2090 2079 2084 2098 2106 2106 2102 2110 2109 2108 2115 2119 2120 2108 2105 2100 2083 2072 2067 2073 2073 2066 2061 2038 2041 2028 2025 2011 1992 1985 1976 1969 1967 1957 1951 1941 1938 1919 1912 1902 1901 1892 1884 1867 1840 1817 1799 1776 1745 1728 1719 1721 1720 1703 1700 1699 1709 1714 1722 1729 1732 1742 1751 1756 1760 1770 1779 1792 1809 1835 1847 1863 1889 1884 1882 1888 1914 1925 1950 1993 2023 2046 2062 2080 2106 2143 2171 2235 2279 0 0 0 0 0 0 0 0 0 0 0 0 0
2246 2272 2304 2328 2359 2382 2412 2424 2412 2401 2389 2363 2360 2360 2347 2338 2336 2337 2345 2355 2367 2358 2351 2355 2363 2377 2393 2416 2464 2507 2539 2553 2603 2627 2668 2705 2732 2765 2776 2789 2787 2767 2744 2719 2723 2722 2706 2699 2682 2669 2663 2655 2651 2648 2634 2640 2670 2682 2701 2735 2785 2821 2852 2859 2828 2801 2781 2750 2744 2722 2729 2741 2746 2745 2752 2747 2733 2700 2688 2681 2672 2636 2628 2618 2609 2602 2575 2563 2553 2536 2518 2501 2495 2487 2476 2457 2441 2425 2415 2417 2425 2441 2485 2505 2532 2556 2593 2583 2565 2527 2510 2485 2462 2442 2429 2420 2416 2400 2392 2393 2413 2413 2414 2424 2433 2447 2464 2494 2509 2536 2566 2594 2615 2634 2643 2636 2612 2583 2553 2527 2497 2472 2442 2425 2382 2379 2383 2401 2427 2453 2475 2499 2518 2539 2559 2585 2604 2626 2641 2640 2661 2695 2750 2782 2808 2839 2867 2887 2909 2938 2953 2973 3012 3037 3058 3081 3118 3153 3183 3264 3272 3281 3312 3325 3316 3309 3220 3158 3114 3073 2994 2950 2927 2883 2839 2810 2780 2758 2748 2710 2682 2631 2605 2580 2553 2536 2525 2508 2487 2478 2467 2453 2455 2466 2484 2510 2506 2529 2543 2547 2549 2549 2538 2526 2516 2527 2524 2526 2507 2499 2494 2490 2482 2474 2473 2458 2441 2434 2420 2405 2390 2384 2369 2351 2335 2320 2293 2261 2237 2206 2174 2150 2114 2087 2081 2080 2071 2067 2068 2071 2073 2074 2090 2098 2080 2078 2084 2083 2085 2093 2094 2093 2089 2072 2061 2057 2047 2045 2036 2029 2024 2015 2010 2016 2013 1997 1989 1977 1972 1962 1954 1949 1942 1934 1921 1914 1909 1897 1890 1884 1872 1859 1846 1821 1795 1772 1749 1738 1728 1733 1734 1722 1703 1695 1700 1713 1722 1730 1737 1746 1756 1763 1767 1774 1786 1791 1796 1818 1837 1853 1865 1867 1869 1880 1905 1932 1956 1989 2024 2040 2059 2091 2121 2162 2186 2243 2283 0 0 0 0 0 0 0 0 0 0 0 0 0
2260 2281 2317 2344 2370 2393 2410 2430 2424 2409 2398 2382 2392 2393 2399 2389 2376 2359 2349 2358 2371 2368 2357 2361 2380 2397 2415 2452 2495 2544 2560 2575 2611 2639 2671 2706 2759 2780 2801 2808 2795 2791 2773 2753 2742 2731 2712 2706 2691 2693 2678 2675 2671 2667 2667 2670 2672 2699 2729 2755 2802 2862 2876 2863 2818 2787 2762 2733 2724 2713 2720 2736 2739 2742 2749 2746 2730 2706 2698 2683 2666 2634 2622 2615 2613 2602 2581 2559 2540 2529 2516 2506 2493 2487 2475 2457 2441 2430 2435 2435 2449 2470 2502 2527 2551 2573 2603 2590 2570 2539 2540 2511 2489 2473 2458 2450 2439 2410 2395 2389 2405 2413 2412 2427 2441 2450 2459 2481 2499 2521 2543 2585 2613 2635 2655 2663 2645 2627 2600 2568 2532 2496 2473 2439 2419 2388 2397 2426 2448 2461 2484 2493 2528 2542 2556 2586 2606 2628 2640 2654 2693 2710 2756 2795 2831 2844 2862 2882 2903 2934 2954 2974 3003 3030 3046 3074 3113 3152 3177 3224 3258 3263 3275 3308 3253 3259 3246 3195 3148 3124 3060 2976 2932 2894 2853 2817 2796 2762 2742 2706 2673 2620 2596 2575 2557 2543 2525 2511 2496 2487 2463 2451 2437 2432 2436 2458 2469 2500 2516 2537 2517 2511 2504 2496 2490 2478 2478 2486 2488 2475 2479 2474 2456 2440 2438 2431 2416 2411 2403 2389 2379 2375 2364 2343 2315 2304 2289 2256 2229 2209 2158 2131 2104 2088 2078 2078 2078 2065 2058 2063 2067 2058 2060 2062 2059 2059 2072 2082 2061 2067 2061 2048 2034 2033 2025 2025 2031 2029 2025 2021 2001 1997 1989 1984 1981 1983 1971 1971 1968 1961 1953 1944 1936 1926 1915 1910 1900 1891 1884 1878 1870 1857 1843 1820 1788 1771 1760 1748 1751 1760 1746 1728 1708 1707 1700 1713 1720 1732 1737 1744 1753 1763 1767 1772 1785 1791 1800 1806 1815 1825 1840 1855 1869 1883 1894 1944 1967 2001 2034 2049 2081 2102 2144 2171 2191 2231 2280 0 0 0 0 0 0 0 0 0 0 0 0 0
0 2293 2329 2350 2388 2409 2418 2435 2438 2434 2430 2419 2403 2405 2411 2400 2394 2375 2359 2369 2379 2384 2375 2376 2387 2409 2430 2474 2523 2556 2576 2595 2635 2656 2674 2721 2768 2787 2814 2819 2804 2804 2800 2793 2770 2760 2752 2735 2724 2709 2686 2680 2676 2673 2686 2696 2708 2741 2773 2808 2841 2886 2881 2858 2818 2793 2745 2730 2708 2714 2728 2738 2740 2741 2737 2747 2734 2709 2691 2681 2667 2652 2633 2620 2615 2602 2581 2559 2544 2526 2517 2514 2502 2498 2491 2470 2445 2450 2450 2448 2459 2484 2506 2546 2582 2602 2614 2603 2585 2566 2549 2520 2495 2487 2469 2470 2459 2428 2415 2399 2394 2405 2417 2434 2452 2461 2468 2482 2503 2518 2533 2578 2610 2630 2661 2678 2660 2638 2615 2579 2552 2527 2497 2485 2466 2433 2437 2440 2461 2473 2487 2502 2543 2563 2574 2590 2615 2631 2645 2669 2693 2710 2740 2799 2829 2836 2860 2872 2888 2911 2948 2970 2996 3024 3046 3072 3099 3144 3158 3174 3212 3201 3199 3195 3234 3239 3237 3198 3187 3149 3118 3024 2983 2927 2880 2845 2798 2773 2743 2709 2667 2622 2601 2583 2570 2552 2541 2529 2498 2484 2468 2447 2434 2428 2423 2409 2429 2445 2472 2499 2502 2497 2491 2484 2475 2455 2447 2441 2438 2439 2445 2439 2437 2429 2426 2421 2407 2391 2382 2365 2353 2350 2340 2318 2304 2295 2275 2247 2222 2185 2164 2117 2102 2094 2092 2089 2083 2072 2068 2068 2071 2063 2054 2053 2048 2046 2044 2049 2047 2042 2032 2032 2018 2010 2004 2001 1997 1991 1988 1989 1987 1987 1982 1971 1969 1953 1952 1944 1942 1952 1941 1934 1931 1920 1911 1907 1901 1887 1882 1876 1863 1842 1827 1811 1776 1764 1759 1755 1761 1778 1772 1764 1766 1745 1719 1717 1727 1731 1736 1742 1750 1762 1767 1773 1782 1788 1799 1808 1818 1827 1839 1853 1874 1914 1930 1984 2011 2038 2061 2074 2089 2114 2147 2170 2188 2213 2268 0 0 0 0 0 0 0 0 0 0 0 0 0
0 2300 2326 2356 2377 2409 2424 2437 2440 2448 2445 2434 2424 2423 2425 2411 2403 2377 2361 2372 2382 2401 2399 2391 2399 2414 2452 2515 2553 2566 2584 2603 2625 2665 2690 2739 2772 2802 2830 2851 2854 2822 2816 2806 2789 2778 2789 2768 2758 2737 2705 2697 2688 2686 2705 2717 2732 2753 2826 2866 2892 2897 2856 2830 2809 2761 2740 2722 2704 2711 2736 2746 2747 2736 2732 2738 2726 2711 2697 2683 2668 2652 2636 2622 2620 2608 2597 2580 2554 2529 2525 2521 2513 2502 2490 2477 2460 2460 2457 2463 2485 2501 2516 2562 2592 2623 2630 2613 2602 2587 2563 2547 2530 2527 2493 2475 2463 2447 2430 2415 2410 2396 2407 2424 2457 2467 2479 2489 2508 2518 2528 2574 2598 2629 2664 2690 2695 2670 2629 2601 2564 2538 2508 2500 2481 2459 2462 2468 2483 2504 2517 2531 2557 2581 2589 2605 2621 2649 2674 2700 2723 2744 2773 2807 2822 2829 2848 2870 2886 2904 2930 2952 2967 3003 3044 3067 3096 3137 3150 3161 3159 3138 3135 3138 3161 3211 3233 3220 3187 3160 3136 3055 3005 2987 2936 2843 2825 2797 2735 2706 2667 2636 2609 2592 2581 2573 2557 2538 2522 2496 2474 2448 2426 2423 2418 2411 2410 2414 2425 2444 2444 2452 2452 2453 2454 2442 2428 2425 2425 2402 2400 2392 2387 2393 2400 2397 2385 2381 2370 2357 2345 2316 2300 2294 2285 2271 2255 2227 2199 2179 2151 2120 2103 2104 2104 2100 2089 2086 2090 2090 2079 2074 2059 2061 2053 2048 2044 2045 2043 2030 2029 2022 2016 2011 2006 2001 1997 1984 1980 1973 1969 1967 1962 1956 1955 1951 1950 1939 1934 1928 1928 1920 1917 1903 1895 1901 1891 1882 1873 1867 1842 1814 1805 1800 1786 1783 1781 1789 1799 1805 1798 1794 1796 1817 1810 1776 1745 1731 1735 1738 1739 1753 1768 1777 1785 1791 1799 1813 1827 1847 1858 1874 1902 1921 1940 1974 2024 2048 2067 2084 2098 2130 2151 2176 2187 2210 2264 0 0 0 0 0 0 0 0 0 0 0 0 0
0 2296 2333 2357 2380 2411 2429 2448 2451 2453 2446 2438 2430 2428 2438 2426 2406 2382 2368 2375 2390 2408 2406 2397 2406 2422 2480 2526 2554 2568 2597 2618 2643 2685 2705 2737 2766 2808 2848 2868 2878 2865 2853 2843 2826 2810 2793 2780 2771 2750 2721 2709 2708 2715 2732 2752 2773 2807 2866 2889 2903 2882 2849 2803 2781 2743 2732 2721 2697 2693 2712 2733 2725 2719 2717 2707 2708 2711 2704 2695 2667 2652 2644 2628 2622 2614 2608 2595 2568 2548 2535 2524 2516 2505 2504 2481 2469 2477 2468 2476 2511 2531 2548 2573 2611 2645 2658 2633 2611 2596 2584 2566 2580 2559 2519 2502 2491 2474 2452 2441 2418 2397 2408 2427 2445 2443 2460 2477 2492 2503 2523 2551 2588 2625 2657 2694 2704 2702 2670 2629 2609 2579 2537 2520 2499 2474 2475 2478 2501 2529 2548 2561 2577 2602 2610 2623 2643 2655 2684 2713 2736 2760 2799 2820 2834 2848 2872 2885 2899 2908 2925 2950 2966 3004 3048 3069 3095 3112 3135 3136 3133 3126 3125 3118 3126 3159 3166 3203 3189 3176 3141 3100 3017 2995 2944 2856 2836 2804 2762 2718 2687 2664 2635 2622 2606 2594 2575 2548 2532 2508 2490 2470 2455 2435 2421 2411 2404 2399 2404 2419 2434 2447 2434 2415 2405 2401 2388 2382 2382 2376 2372 2365 2365 2373 2357 2357 2360 2345 2343 2338 2326 2301 2282 2276 2269 2255 2239 2216 2183 2163 2138 2124 2109 2106 2101 2101 2094 2093 2100 2099 2098 2093 2081 2070 2068 2066 2048 2051 2045 2039 2049 2042 2035 2021 2009 2000 1985 1982 1976 1971 1964 1962 1974 1965 1962 1955 1945 1927 1924 1922 1914 1910 1905 1898 1892 1884 1886 1874 1858 1846 1836 1810 1810 1804 1797 1801 1827 1837 1840 1842 1847 1858 1852 1850 1831 1795 1763 1732 1730 1736 1745 1754 1766 1771 1775 1785 1799 1814 1828 1858 1880 1893 1911 1942 1958 1985 2023 2043 2059 2079 2103 2135 2149 2167 2179 2201 2230 0 0 0 0 0 0 0 0 0 0 0 0 0
0 2295 2332 2359 2381 2396 2429 2446 2455 2456 2455 2455 2451 2439 2433 2417 2401 2385 2379 2377 2403 2417 2419 2411 2418 2439 2475 2520 2547 2566 2598 2619 2644 2674 2711 2736 2774 2820 2857 2881 2886 2884 2874 2884 2858 2841 2820 2808 2784 2765 2739 2726 2724 2729 2734 2789 2804 2841 2890 2902 2894 2855 2819 2793 2770 2736 2720 2709 2675 2670 2684 2694 2700 2700 2698 2704 2703 2708 2708 2704 2670 2656 2650 2645 2637 2639 2631 2613 2573 2549 2535 2526 2526 2515 2504 2490 2484 2493 2489 2500 2510 2540 2560 2582 2624 2671 2687 2688 2652 2643 2630 2618 2599 2577 2550 2531 2514 2507 2467 2454 2433 2410 2410 2427 2434 2437 2450 2467 2480 2491 2512 2546 2583 2612 2646 2680 2710 2714 2687 2642 2618 2594 2580 2548 2528 2513 2507 2508 2523 2534 2560 2573 2590 2613 2627 2643 2660 2683 2700 2721 2763 2794 2816 2830 2855 2873 2905 2926 2933 2948 2954 2969 2988 3010 3044 3068 3087 3102 3122 3106 3086 3085 3074 3080 3085 3101 3121 3186 3193 3180 3147 3104 3038 2996 2947 2890 2844 2809 2774 2732 2699 2676 2663 2657 2643 2631 2605 2586 2562 2532 2503 2485 2469 2443 2426 2419 2409 2397 2396 2393 2378 2393 2407 2408 2394 2389 2378 2355 2346 2341 2333 2332 2329 2325 2334 2338 2337 2334 2333 2307 2297 2274 2262 2257 2255 2243 2239 2217 2184 2155 2134 2120 2117 2107 2104 2106 2109 2108 2105 2102 2101 2095 2093 2089 2086 2083 2072 2072 2071 2066 2063 2052 2041 2024 2014 2030 2024 2007 2004 2002 1995 1996 1992 1987 1972 1967 1955 1944 1933 1926 1911 1900 1897 1892 1886 1884 1888 1876 1876 1854 1844 1837 1844 1844 1835 1842 1856 1865 1865 1865 1892 1896 1902 1891 1865 1816 1770 1732 1731 1739 1743 1753 1765 1766 1768 1776 1806 1818 1831 1864 1879 1895 1913 1942 1962 1980 2023 2044 2066 2084 2097 2117 2144 2160 2178 2201 2230 0 0 0 0 0 0 0 0 0 0 0 0 0
0 2308 2350 2371 2388 2403 2436 2449 2456 2464 2461 2469 2464 2451 2437 2422 2403 2396 2390 2380 2400 2414 2422 2430 2442 2456 2489 2537 2547 2563 2587 2622 2645 2672 2707 2747 2772 2802 2861 2885 2896 2911 2908 2896 2879 2856 2835 2821 2804 2786 2770 2760 2756 2751 2762 2802 2832 2863 2884 2897 2867 2838 2800 2769 2749 2723 2704 2686 2667 2662 2679 2684 2679 2673 2683 2694 2687 2687 2693 2699 2666 2657 2659 2647 2640 2642 2647 2621 2594 2570 2553 2543 2531 2523 2500 2492 2498 2512 2512 2520 2531 2568 2590 2625 2659 2685 2709 2703 2681 2687 2684 2672 2630 2611 2588 2561 2542 2519 2487 2458 2440 2419 2414 2417 2428 2438 2449 2452 2464 2490 2513 2544 2568 2608 2639 2677 2715 2724 2714 2686 2642 2616 2591 2575 2554 2531 2542 2545 2553 2567 2589 2606 2607 2619 2636 2650 2667 2697 2713 2758 2778 2819 2837 2860 2888 2898 2917 2936 2956 2962 2976 3005 3014 3025 3041 3072 3085 3099 3107 3095 3075 3070 3059 3060 3057 3062 3081 3126 3187 3187 3161 3120 3051 3006 2959 2909 2861 2831 2784 2760 2727 2708 2699 2680 2662 2652 2629 2635 2605 2558 2537 2515 2500 2486 2446 2429 2415 2405 2392 2390 2379 2376 2371 2365 2354 2349 2345 2339 2330 2323 2322 2304 2298 2295 2293 2303 2302 2298 2296 2289 2275 2259 2250 2242 2236 2222 2213 2207 2187 2149 2133 2123 2119 2110 2105 2115 2121 2121 2115 2112 2112 2103 2092 2091 2097 2091 2080 2095 2094 2085 2076 2061 2051 2048 2047 2045 2042 2024 2021 2045 2043 2035 2020 2015 2009 1993 1979 1969 1947 1940 1922 1929 1929 1926 1932 1921 1914 1906 1899 1876 1875 1861 1867 1875 1868 1889 1888 1897 1906 1908 1916 1920 1915 1901 1868 1836 1769 1733 1728 1741 1747 1753 1759 1759 1763 1771 1802 1811 1834 1856 1883 1901 1917 1948 1965 1982 2008 2047 2066 2079 2102 2117 2132 2144 2174 2202 2234 0 0 0 0 0 0 0 0 0 0 0 0 0
0 2312 2350 2392 2414 2428 2450 2457 2465 2473 2480 2474 2463 2457 2447 2432 2426 2414 2409 2398 2400 2410 2421 2431 2450 2470 2505 2540 2551 2568 2593 2633 2652 2677 2717 2752 2769 2804 2857 2881 2911 2944 2951 2926 2906 2881 2861 2845 2831 2803 2787 2775 2774 2783 2802 2823 2864 2869 2873 2869 2849 2825 2806 2764 2738 2694 2676 2665 2662 2657 2665 2672 2667 2659 2679 2683 2682 2666 2667 2670 2662 2662 2665 2661 2655 2653 2651 2629 2600 2583 2567 2553 2534 2523 2513 2512 2518 2520 2529 2532 2545 2587 2617 2647 2666 2718 2735 2741 2732 2723 2714 2695 2650 2633 2607 2567 2543 2516 2493 2468 2452 2443 2420 2419 2432 2444 2468 2467 2467 2480 2520 2547 2569 2605 2638 2675 2704 2729 2728 2715 2675 2644 2629 2619 2609 2575 2562 2560 2568 2585 2599 2629 2635 2647 2662 2675 2689 2711 2745 2765 2784 2834 2849 2879 2902 2922 2943 2966 2991 2997 3009 3017 3034 3041 3055 3079 3100 3107 3099 3060 3045 3051 3057 3051 3044 3047 3066 3105 3153 3178 3156 3143 3066 3016 2956 2922 2858 2837 2801 2774 2761 2740 2734 2723 2705 2700 2692 2651 2624 2579 2565 2541 2530 2512 2469 2450 2437 2428 2409 2400 2385 2371 2366 2359 2355 2344 2337 2335 2321 2310 2303 2300 2288 2282 2283 2284 2259 2259 2257 2251 2244 2243 2230 2230 2223 2228 2208 2205 2172 2152 2141 2129 2125 2120 2117 2118 2129 2128 2128 2122 2123 2116 2115 2102 2107 2107 2104 2107 2102 2088 2081 2080 2088 2074 2077 2083 2071 2062 2057 2062 2068 2039 2033 2030 2039 2021 2010 1998 1980 1972 1973 1955 1950 1948 1950 1943 1968 1977 1958 1959 1945 1931 1906 1891 1884 1893 1907 1918 1949 1950 1953 1940 1927 1891 1864 1831 1767 1735 1728 1738 1743 1748 1755 1766 1769 1771 1779 1810 1829 1850 1886 1908 1918 1927 1955 1977 2001 2043 2064 2073 2092 2116 2130 2142 2162 2185 2226 2255 0 0 0 0 0 0 0 0 0 0 0 0
0 2316 2350 2398 2418 2437 2453 2464 2468 2475 2482 2487 2479 2463 2452 2443 2430 2422 2418 2414 2430 2433 2434 2437 2464 2498 2520 2536 2554 2567 2595 2642 2657 2685 2714 2760 2785 2816 2866 2892 2915 2948 2968 2950 2930 2926 2911 2885 2863 2838 2821 2805 2783 2797 2812 2831 2859 2848 2840 2828 2817 2795 2779 2746 2715 2689 2671 2654 2653 2653 2663 2652 2641 2636 2645 2661 2662 2661 2664 2665 2664 2660 2665 2666 2670 2666 2658 2648 2626 2591 2568 2555 2540 2530 2525 2534 2530 2540 2550 2559 2579 2596 2636 2659 2676 2746 2764 2811 2799 2780 2762 2736 2685 2651 2618 2592 2551 2524 2498 2488 2470 2462 2456 2435 2437 2454 2477 2476 2469 2480 2514 2535 2563 2599 2625 2664 2691 2736 2747 2731 2693 2671 2646 2644 2643 2613 2602 2599 2598 2605 2624 2649 2650 2661 2667 2690 2718 2728 2756 2782 2806 2841 2881 2895 2916 2937 2964 2980 3006 3029 3035 3055 3076 3085 3090 3095 3101 3099 3082 3047 3033 3035 3046 3036 3033 3043 3055 3095 3149 3175 3162 3137 3099 3044 2970 2936 2893 2849 2826 2804 2772 2768 2762 2742 2745 2737 2736 2708 2685 2667 2634 2582 2548 2520 2475 2461 2462 2449 2422 2410 2399 2388 2377 2370 2370 2356 2341 2337 2329 2320 2309 2300 2282 2273 2266 2264 2249 2244 2236 2229 2222 2217 2212 2209 2205 2205 2180 2179 2165 2160 2143 2136 2140 2134 2126 2127 2135 2147 2150 2143 2134 2135 2134 2126 2127 2117 2116 2116 2121 2121 2123 2122 2115 2107 2097 2109 2121 2121 2112 2103 2099 2093 2074 2059 2048 2042 2028 2019 2010 2000 1992 1986 1996 1999 1990 1992 1999 2012 2008 1988 2009 1996 1967 1934 1925 1930 1951 1964 1971 1974 1970 1959 1942 1897 1863 1827 1788 1742 1736 1738 1742 1747 1754 1761 1775 1779 1786 1808 1825 1844 1868 1896 1913 1924 1940 1967 1989 2010 2046 2069 2083 2107 2121 2133 2147 2177 2216 2242 0 0 0 0 0 0 0 0 0 0 0 0
0 2325 2362 2389 2421 2435 2448 2463 2470 2474 2481 2489 2483 2477 2463 2454 2448 2442 2429 2440 2447 2445 2448 2448 2462 2516 2539 2552 2571 2590 2612 2637 2666 2691 2723 2760 2788 2826 2862 2903 2930 2969 3005 2988 2967 2953 2925 2896 2871 2849 2827 2798 2789 2790 2793 2810 2825 2819 2819 2807 2792 2783 2750 2731 2697 2678 2658 2636 2631 2645 2651 2646 2634 2628 2628 2638 2645 2651 2653 2661 2664 2673 2673 2676 2683 2673 2664 2662 2633 2601 2577 2567 2560 2551 2550 2548 2546 2560 2559 2581 2597 2618 2653 2691 2727 2776 2830 2832 2815 2797 2772 2745 2720 2673 2647 2620 2564 2530 2519 2507 2478 2471 2460 2447 2447 2445 2460 2487 2489 2485 2502 2527 2553 2581 2625 2657 2670 2724 2751 2745 2732 2711 2693 2679 2657 2629 2620 2614 2633 2638 2655 2669 2679 2688 2701 2721 2727 2740 2771 2792 2817 2853 2907 2926 2962 2971 2984 3006 3019 3052 3065 3082 3099 3107 3099 3091 3079 3072 3047 3038 3034 3034 3039 3031 3032 3035 3037 3076 3137 3175 3162 3136 3110 3070 2972 2944 2914 2879 2857 2851 2842 2824 2813 2791 2754 2757 2758 2733 2699 2696 2677 2623 2582 2544 2519 2487 2474 2454 2426 2414 2403 2399 2380 2377 2379 2366 2355 2347 2341 2321 2310 2305 2286 2281 2273 2266 2249 2241 2230 2221 2217 2215 2212 2206 2203 2193 2184 2175 2168 2162 2156 2152 2150 2151 2142 2139 2140 2161 2174 2178 2184 2183 2179 2163 2140 2130 2126 2123 2134 2161 2167 2168 2160 2157 2150 2137 2133 2135 2132 2127 2112 2124 2117 2102 2092 2068 2056 2047 2024 2008 2008 2013 2009 2037 2046 2047 2060 2062 2072 2059 2041 2024 1995 1951 1947 1973 2001 2011 2026 2008 1988 1974 1944 1918 1869 1838 1800 1752 1738 1737 1744 1749 1757 1767 1781 1785 1792 1803 1827 1839 1859 1884 1891 1909 1925 1958 1982 2009 2036 2058 2073 2086 2103 2116 2130 2167 2192 2221 0 0 0 0 0 0 0 0 0 0 0 0
0 2332 2362 2394 2426 2448 2456 2465 2477 2484 2491 2477 2482 2482 2477 2463 2459 2457 2454 2460 2473 2473 2471 2479 2496 2528 2550 2562 2577 2605 2640 2657 2677 2704 2738 2759 2800 2830 2867 2901 2936 2983 3006 2986 2962 2944 2909 2896 2864 2847 2810 2785 2768 2765 2745 2754 2773 2773 2766 2774 2766 2757 2745 2732 2686 2666 2646 2620 2613 2614 2624 2622 2615 2615 2617 2626 2633 2638 2651 2660 2664 2675 2679 2695 2699 2680 2675 2669 2648 2621 2590 2602 2588 2573 2568 2576 2568 2574 2588 2602 2619 2627 2664 2709 2776 2819 2861 2847 2832 2819 2783 2747 2719 2676 2655 2633 2607 2567 2538 2522 2506 2485 2472 2464 2444 2448 2462 2486 2492 2498 2505 2522 2549 2573 2609 2644 2666 2705 2754 2753 2744 2728 2712 2703 2688 2663 2657 2649 2651 2664 2674 2689 2696 2716 2724 2746 2763 2777 2799 2823 2844 2871 2913 2935 2968 2984 3011 3035 3054 3089 3119 3129 3128 3109 3095 3084 3060 3054 3025 3023 3026 3026 3021 3024 3030 3031 3038 3075 3141 3172 3173 3141 3111 3081 3023 2976 2947 2915 2886 2893 2879 2855 2877 2835 2850 2854 2817 2796 2752 2726 2700 2674 2612 2565 2551 2526 2508 2483 2462 2429 2413 2402 2399 2392 2384 2378 2364 2356 2353 2339 2332 2318 2306 2284 2273 2269 2251 2241 2248 2239 2226 2214 2205 2196 2190 2186 2181 2170 2165 2159 2174 2171 2167 2174 2172 2171 2169 2168 2191 2196 2202 2198 2200 2186 2172 2164 2169 2169 2173 2179 2184 2185 2174 2172 2190 2183 2167 2159 2161 2163 2154 2138 2128 2113 2102 2100 2078 2075 2064 2052 2059 2060 2056 2067 2069 2069 2103 2161 2139 2125 2107 2081 2052 1990 1991 1998 2010 2034 2045 2058 2008 1981 1954 1926 1876 1852 1822 1764 1742 1737 1743 1752 1761 1775 1795 1800 1808 1819 1832 1841 1855 1872 1884 1896 1912 1941 1965 1983 2004 2051 2066 2078 2096 2110 2122 2148 2180 2206 0 0 0 0 0 0 0 0 0 0 0 0
0 2335 2368 2410 2442 2454 2463 2467 2472 2472 2453 2468 2476 2478 2480 2469 2472 2468 2463 2476 2480 2484 2508 2535 2548 2554 2580 2590 2607 2638 2656 2665 2681 2714 2752 2772 2815 2856 2887 2914 2971 2996 3006 2962 2942 2924 2897 2857 2835 2817 2784 2760 2736 2728 2728 2732 2756 2766 2751 2740 2734 2736 2724 2708 2670 2653 2637 2615 2601 2604 2612 2604 2587 2580 2590 2608 2622 2643 2654 2665 2671 2672 2680 2696 2698 2697 2691 2687 2681 2652 2630 2615 2600 2584 2575 2582 2594 2603 2608 2627 2648 2662 2685 2746 2798 2861 2861 2845 2823 2811 2784 2747 2725 2702 2665 2648 2613 2584 2558 2539 2526 2512 2501 2483 2449 2459 2477 2485 2501 2499 2508 2533 2558 2582 2602 2640 2671 2712 2756 2759 2755 2739 2719 2712 2711 2723 2710 2697 2689 2685 2687 2698 2712 2728 2734 2747 2772 2788 2816 2852 2879 2900 2922 2960 3007 3010 3035 3054 3072 3103 3186 3161 3136 3108 3079 3068 3054 3030 3013 3006 3020 3025 3011 3014 3024 3017 3034 3095 3161 3175 3176 3139 3113 3079 3054 3021 2993 2992 2982 2960 2947 2933 2891 2894 2900 2870 2868 2844 2829 2792 2758 2713 2678 2610 2571 2555 2517 2498 2483 2444 2432 2425 2416 2405 2396 2391 2372 2368 2356 2346 2328 2313 2304 2301 2285 2283 2274 2261 2257 2244 2225 2212 2223 2212 2201 2198 2196 2192 2192 2189 2178 2185 2184 2185 2202 2211 2209 2200 2207 2225 2238 2236 2218 2198 2193 2201 2223 2226 2215 2215 2224 2231 2225 2222 2208 2201 2190 2188 2205 2185 2184 2182 2173 2143 2134 2120 2094 2086 2086 2078 2117 2123 2121 2123 2123 2153 2183 2184 2162 2141 2123 2096 2085 2058 2047 2044 2062 2087 2097 2076 2045 1990 1963 1932 1905 1885 1871 1844 1772 1743 1738 1745 1764 1779 1791 1804 1810 1816 1835 1846 1858 1867 1880 1895 1911 1940 1961 1979 1997 2043 2060 2070 2084 2109 2122 2145 2177 2202 0 0 0 0 0 0 0 0 0 0 0 0
0 2338 2379 2417 2433 2456 2454 2457 2451 2452 2448 2455 2464 2464 2464 2474 2479 2490 2490 2495 2506 2510 2531 2555 2565 2575 2599 2624 2635 2665 2684 2698 2708 2741 2768 2787 2826 2868 2894 2932 2991 2994 2972 2936 2908 2894 2872 2842 2820 2808 2785 2747 2734 2725 2712 2712 2709 2708 2715 2718 2722 2720 2717 2700 2665 2641 2625 2603 2589 2587 2578 2591 2578 2578 2590 2601 2618 2647 2652 2659 2664 2673 2680 2687 2706 2706 2703 2708 2701 2668 2641 2624 2609 2594 2599 2601 2607 2612 2616 2627 2655 2690 2718 2776 2815 2863 2846 2835 2819 2800 2766 2736 2725 2692 2677 2660 2631 2592 2578 2558 2542 2523 2513 2501 2452 2461 2479 2499 2516 2521 2526 2546 2576 2592 2610 2648 2676 2718 2764 2779 2774 2765 2751 2746 2741 2741 2731 2715 2708 2702 2729 2730 2733 2752 2761 2784 2809 2826 2846 2859 2893 2920 2986 3069 3079 3061 3079 3096 3119 3170 3211 3176 3144 3115 3083 3067 3048 3029 3004 2994 3000 3003 3002 3007 3005 3012 3038 3096 3160 3170 3175 3139 3111 3086 3065 3033 3024 3008 3005 3025 3009 3001 2984 2991 2983 2930 2889 2863 2838 2807 2781 2719 2697 2662 2628 2589 2538 2513 2504 2467 2445 2439 2426 2421 2414 2409 2395 2388 2369 2357 2339 2322 2314 2310 2299 2309 2287 2272 2270 2262 2259 2237 2236 2224 2215 2207 2208 2223 2219 2205 2198 2197 2211 2215 2216 2222 2225 2217 2219 2251 2258 2275 2257 2243 2239 2244 2252 2257 2247 2238 2242 2267 2276 2277 2269 2254 2230 2228 2216 2198 2192 2194 2179 2173 2160 2149 2138 2113 2124 2134 2139 2144 2143 2139 2162 2206 2220 2200 2188 2175 2147 2130 2103 2090 2061 2069 2095 2146 2137 2111 2072 2023 1999 1964 1936 1908 1897 1872 1810 1789 1757 1745 1764 1782 1795 1805 1813 1824 1837 1859 1869 1883 1892 1903 1916 1936 1966 1985 2005 2039 2057 2071 2080 2106 2122 2144 2176 2194 0 0 0 0 0 0 0 0 0 0 0 0
0 2345 2390 2420 2435 2450 2454 2418 2423 2424 2423 2426 2449 2453 2462 2470 2484 2494 2494 2509 2527 2545 2561 2569 2579 2593 2626 2637 2646 2667 2692 2711 2731 2768 2785 2809 2832 2878 2914 2941 2987 2980 2950 2918 2870 2853 2836 2817 2797 2786 2773 2748 2726 2719 2704 2703 2697 2695 2695 2692 2685 2684 2681 2669 2659 2640 2620 2602 2589 2576 2568 2573 2564 2571 2583 2589 2616 2639 2647 2657 2663 2669 2682 2695 2700 2712 2729 2723 2707 2688 2653 2635 2624 2629 2628 2624 2628 2631 2649 2663 2683 2701 2734 2772 2841 2859 2832 2793 2776 2758 2744 2720 2713 2693 2678 2666 2646 2621 2604 2590 2573 2556 2536 2515 2491 2465 2474 2496 2521 2528 2552 2572 2602 2619 2640 2673 2703 2734 2774 2791 2789 2783 2797 2789 2783 2768 2765 2762 2743 2745 2756 2756 2754 2763 2784 2816 2838 2863 2893 2919 2966 2988 3016 3076 3122 3071 3122 3168 3216 3246 3253 3222 3157 3125 3091 3068 3050 3028 2995 2979 2983 2996 2992 2989 2984 3000 3037 3093 3153 3171 3176 3141 3109 3091 3077 3058 3046 3042 3046 3044 3040 3035 3010 3030 3009 2979 2904 2874 2853 2799 2773 2731 2699 2676 2643 2641 2582 2569 2545 2516 2478 2460 2447 2437 2423 2422 2401 2393 2386 2378 2366 2342 2327 2322 2313 2319 2296 2281 2271 2276 2271 2268 2258 2249 2236 2240 2237 2241 2239 2226 2218 2231 2235 2246 2260 2264 2256 2257 2251 2260 2272 2291 2278 2265 2252 2276 2294 2304 2299 2283 2290 2294 2294 2285 2279 2272 2253 2248 2241 2235 2225 2214 2201 2186 2175 2170 2159 2162 2169 2176 2180 2196 2199 2199 2204 2237 2241 2212 2191 2198 2176 2160 2149 2128 2118 2124 2141 2166 2158 2127 2085 2079 2032 2005 1977 1944 1933 1911 1885 1808 1771 1753 1764 1777 1792 1804 1824 1836 1846 1871 1885 1899 1904 1912 1927 1949 1971 1996 2022 2040 2069 2079 2088 2110 2124 2143 2168 2196 0 0 0 0 0 0 0 0 0 0 0 0
0 2359 2401 2415 2416 2418 2408 2408 2409 2416 2420 2421 2432 2447 2463 2471 2493 2505 2512 2514 2539 2559 2566 2574 2592 2613 2634 2663 2673 2684 2707 2719 2733 2761 2799 2820 2849 2894 2929 2962 2980 2957 2923 2889 2856 2835 2824 2820 2793 2779 2768 2731 2720 2706 2698 2694 2695 2693 2688 2681 2671 2660 2648 2642 2641 2619 2610 2598 2590 2575 2561 2559 2569 2563 2566 2577 2600 2623 2639 2651 2660 2670 2686 2699 2699 2715 2739 2737 2730 2721 2693 2668 2648 2632 2636 2635 2634 2649 2675 2690 2707 2746 2773 2800 2871 2861 2827 2789 2754 2744 2729 2711 2699 2688 2684 2670 2650 2625 2608 2602 2585 2573 2552 2543 2523 2491 2483 2488 2504 2541 2567 2587 2609 2633 2656 2697 2735 2764 2790 2821 2821 2810 2807 2816 2805 2788 2772 2797 2794 2786 2802 2798 2810 2818 2831 2835 2853 2899 2922 3017 3017 3049 3106 3172 3164 3178 3182 3210 3233 3261 3261 3238 3192 3143 3113 3083 3052 3028 2982 2966 2970 2985 2986 2985 2981 3003 3038 3112 3143 3178 3166 3123 3098 3082 3071 3063 3040 3026 3029 3034 3049 3059 3060 3055 3009 2976 2901 2869 2858 2806 2775 2756 2731 2698 2680 2657 2639 2605 2577 2532 2509 2501 2482 2468 2454 2441 2427 2412 2395 2382 2369 2350 2350 2342 2342 2331 2322 2298 2289 2288 2284 2285 2268 2266 2286 2285 2277 2276 2272 2260 2252 2243 2247 2254 2267 2278 2294 2293 2291 2293 2306 2308 2299 2279 2279 2288 2316 2321 2332 2319 2336 2340 2329 2298 2290 2284 2275 2265 2248 2244 2246 2242 2231 2227 2215 2219 2214 2196 2193 2199 2217 2220 2262 2260 2259 2261 2261 2252 2226 2215 2187 2188 2180 2169 2189 2184 2203 2219 2211 2174 2134 2102 2053 2024 1997 1980 1967 1954 1919 1843 1800 1770 1754 1781 1801 1812 1832 1842 1863 1874 1892 1910 1921 1933 1946 1955 1970 2008 2027 2043 2071 2092 2102 2115 2133 2149 2166 2198 0 0 0 0 0 0 0 0 0 0 0 0
0 2368 2397 2401 2391 2397 2404 2408 2410 2414 2421 2422 2429 2442 2455 2470 2478 2495 2507 2521 2552 2566 2570 2581 2603 2625 2644 2667 2684 2696 2715 2734 2740 2773 2806 2835 2863 2884 2938 2968 2976 2930 2902 2879 2856 2823 2820 2816 2788 2780 2771 2747 2720 2717 2699 2685 2687 2682 2677 2675 2670 2656 2639 2636 2627 2611 2580 2577 2576 2565 2551 2551 2559 2563 2562 2571 2597 2622 2635 2649 2666 2679 2686 2696 2707 2727 2742 2743 2741 2728 2695 2673 2658 2645 2651 2663 2671 2674 2693 2706 2719 2767 2787 2852 2870 2861 2825 2793 2755 2740 2728 2711 2699 2684 2673 2654 2640 2624 2613 2602 2597 2584 2562 2553 2537 2518 2488 2498 2510 2554 2578 2601 2615 2662 2685 2707 2753 2782 2805 2823 2843 2848 2848 2851 2843 2819 2821 2815 2805 2809 2824 2832 2869 2871 2889 2896 2914 3009 3049 3053 3097 3125 3180 3202 3215 3206 3212 3221 3256 3270 3265 3244 3209 3162 3117 3076 3062 3041 3000 2965 2961 2976 2966 2973 2977 2987 3032 3117 3149 3162 3124 3097 3074 3049 3036 3025 3008 3008 3000 3010 3027 3036 3047 3032 3005 2974 2939 2877 2857 2818 2780 2764 2755 2746 2699 2679 2652 2646 2617 2565 2540 2501 2493 2479 2467 2469 2453 2443 2404 2400 2385 2374 2362 2353 2356 2344 2332 2342 2321 2315 2310 2311 2309 2313 2313 2312 2294 2290 2282 2299 2292 2285 2283 2286 2297 2313 2325 2320 2314 2312 2343 2334 2334 2336 2353 2356 2377 2358 2348 2334 2352 2354 2358 2353 2336 2324 2310 2282 2277 2267 2262 2257 2253 2253 2272 2259 2259 2256 2257 2261 2260 2278 2290 2286 2282 2275 2283 2269 2250 2244 2234 2217 2230 2219 2242 2232 2236 2229 2233 2193 2156 2123 2083 2044 2022 2008 1989 1970 1938 1878 1814 1777 1758 1791 1806 1818 1831 1858 1868 1874 1889 1902 1917 1931 1953 1965 1979 2012 2033 2053 2069 2101 2113 2125 2147 2157 2172 2191 0 0 0 0 0 0 0 0 0 0 0 0
0 2370 2380 2388 2389 2395 2416 2416 2414 2423 2436 2440 2438 2446 2454 2459 2468 2489 2502 2517 2551 2557 2570 2594 2624 2644 2661 2675 2687 2693 2714 2735 2752 2779 2800 2851 2877 2898 2952 2960 2952 2928 2903 2884 2858 2816 2802 2791 2777 2763 2758 2745 2725 2726 2702 2687 2686 2678 2672 2665 2655 2638 2621 2612 2601 2590 2568 2564 2567 2554 2539 2546 2551 2551 2557 2570 2588 2618 2635 2648 2666 2680 2689 2697 2715 2727 2742 2751 2754 2739 2712 2679 2667 2650 2657 2678 2688 2701 2727 2743 2766 2824 2855 2876 2883 2867 2834 2821 2804 2756 2728 2709 2683 2674 2667 2660 2635 2623 2613 2599 2587 2582 2576 2567 2545 2522 2509 2503 2518 2538 2575 2606 2644 2682 2703 2729 2765 2818 2837 2847 2858 2868 2872 2880 2893 2873 2876 2866 2854 2863 2881 2884 2872 2889 2900 2908 2921 3063 3123 3218 3222 3229 3232 3224 3221 3204 3202 3215 3247 3235 3244 3237 3215 3183 3147 3085 3066 3045 3009 2964 2960 2969 2966 2968 2976 2987 3043 3132 3155 3158 3114 3087 3063 3028 3013 2990 2981 2963 2953 2968 2995 3024 3044 3038 3005 2992 2964 2927 2901 2858 2822 2786 2772 2753 2716 2697 2666 2658 2624 2582 2563 2533 2517 2507 2493 2486 2468 2450 2419 2422 2419 2406 2398 2398 2394 2385 2377 2374 2351 2335 2332 2349 2348 2344 2345 2339 2331 2326 2324 2312 2319 2320 2311 2318 2325 2342 2359 2364 2357 2342 2363 2357 2351 2355 2388 2423 2432 2401 2384 2380 2384 2387 2373 2371 2365 2350 2325 2324 2299 2291 2293 2283 2287 2301 2308 2287 2281 2281 2267 2288 2310 2336 2347 2339 2332 2327 2295 2283 2273 2258 2254 2297 2282 2280 2282 2290 2295 2275 2254 2208 2168 2130 2114 2083 2054 2031 2013 1996 1921 1872 1815 1782 1763 1790 1803 1815 1828 1847 1865 1879 1889 1906 1922 1935 1962 1974 1986 2008 2036 2055 2077 2103 2117 2128 2140 2161 2178 2192 0 0 0 0 0 0 0 0 0 0 0 0
0 2343 2360 2383 2392 2410 2434 2446 2439 2428 2439 2445 2445 2456 2456 2463 2465 2480 2489 2506 2523 2554 2573 2600 2626 2645 2659 2667 2680 2690 2702 2732 2761 2780 2811 2846 2888 2911 2936 2921 2910 2878 2881 2875 2864 2846 2812 2795 2770 2757 2745 2743 2742 2731 2712 2701 2687 2678 2675 2665 2646 2632 2612 2586 2584 2574 2564 2546 2534 2543 2537 2540 2546 2549 2567 2583 2598 2616 2635 2644 2660 2684 2694 2699 2717 2731 2743 2765 2765 2750 2734 2711 2699 2682 2678 2686 2696 2720 2750 2776 2834 2877 2905 2912 2912 2886 2866 2847 2820 2762 2736 2715 2699 2675 2656 2650 2631 2625 2614 2601 2593 2587 2583 2573 2559 2547 2536 2523 2532 2549 2581 2611 2647 2678 2718 2745 2774 2837 2863 2876 2883 2904 2915 2922 2914 2904 2896 2889 2877 2897 2921 3060 3023 3052 3047 3000 3029 3119 3185 3250 3258 3258 3241 3224 3207 3189 3183 3187 3196 3215 3220 3220 3201 3175 3141 3116 3066 3033 3003 2969 2962 2972 2973 2965 2973 2983 3001 3124 3141 3123 3083 3059 3047 3016 2999 2979 2967 2955 2938 2944 2977 2990 3012 3032 3029 2997 2987 2961 2918 2891 2908 2827 2791 2763 2752 2717 2699 2670 2635 2597 2568 2555 2555 2542 2529 2512 2497 2484 2468 2445 2437 2428 2418 2416 2416 2424 2414 2396 2388 2373 2366 2362 2363 2360 2361 2360 2363 2359 2364 2368 2376 2376 2369 2339 2338 2350 2366 2387 2405 2392 2381 2384 2383 2403 2415 2432 2444 2421 2407 2402 2427 2418 2423 2417 2407 2383 2355 2332 2319 2314 2314 2312 2333 2336 2348 2348 2326 2317 2324 2332 2347 2364 2370 2354 2354 2339 2319 2308 2296 2297 2310 2327 2323 2300 2325 2327 2337 2310 2280 2251 2202 2160 2137 2095 2067 2042 2019 1995 1919 1881 1818 1774 1764 1772 1803 1816 1824 1846 1863 1877 1887 1909 1927 1943 1967 1978 1990 2010 2037 2060 2079 2099 2123 2129 2139 2157 2169 2184 0 0 0 0 0 0 0 0 0 0 0 0
0 2336 2356 2373 2400 2424 2444 2467 2461 2444 2449 2453 2460 2463 2465 2470 2470 2474 2489 2499 2512 2542 2564 2581 2595 2629 2647 2657 2666 2683 2694 2710 2758 2780 2805 2855 2883 2913 2931 2903 2881 2862 2870 2848 2847 2847 2830 2812 2783 2760 2749 2739 2736 2729 2719 2706 2685 2675 2665 2653 2631 2620 2602 2590 2574 2566 2556 2524 2522 2522 2534 2537 2541 2547 2563 2580 2600 2611 2632 2647 2668 2688 2695 2701 2708 2728 2754 2769 2765 2756 2744 2735 2748 2750 2744 2740 2745 2763 2788 2836 2877 2899 2912 2922 2910 2900 2872 2854 2832 2796 2767 2749 2719 2688 2663 2652 2635 2626 2616 2608 2600 2597 2596 2579 2560 2547 2544 2540 2546 2570 2608 2635 2669 2695 2741 2766 2799 2852 2873 2884 2900 2943 2957 2966 2964 2949 2955 2956 2950 2967 3002 3096 3085 3063 3109 3133 3170 3276 3284 3293 3272 3258 3226 3203 3182 3168 3134 3132 3140 3153 3144 3153 3149 3146 3136 3118 3059 3036 3016 2986 2957 2961 2969 2961 2960 2956 2974 3089 3125 3101 3044 3033 3010 2999 2974 2956 2952 2933 2928 2932 2954 2981 2991 3025 3054 3046 3016 3004 2960 2941 2932 2864 2817 2788 2789 2745 2714 2693 2669 2636 2613 2594 2579 2573 2549 2532 2536 2509 2494 2478 2470 2465 2458 2443 2437 2430 2424 2406 2402 2392 2381 2387 2379 2389 2379 2371 2373 2375 2381 2396 2426 2421 2418 2418 2403 2391 2393 2413 2414 2403 2405 2409 2448 2450 2456 2470 2477 2465 2462 2459 2449 2443 2445 2430 2429 2410 2392 2374 2359 2352 2337 2344 2349 2354 2370 2365 2371 2369 2372 2384 2405 2408 2396 2365 2350 2337 2316 2307 2304 2306 2323 2341 2368 2356 2354 2355 2341 2310 2281 2249 2209 2186 2155 2128 2107 2085 2055 1989 1923 1884 1849 1776 1760 1767 1799 1816 1826 1835 1862 1874 1889 1911 1927 1940 1954 1978 1998 2015 2044 2073 2091 2109 2129 2136 2144 2163 2181 2193 0 0 0 0 0 0 0 0 0 0 0 0
0 2334 2360 2381 2413 2432 2449 2469 2467 2462 2470 2468 2475 2475 2476 2486 2490 2487 2495 2496 2506 2528 2552 2558 2574 2599 2610 2618 2636 2670 2690 2715 2757 2773 2807 2840 2879 2895 2900 2869 2846 2819 2820 2826 2826 2836 2829 2813 2808 2787 2762 2739 2723 2718 2711 2699 2682 2662 2657 2644 2621 2606 2596 2580 2556 2545 2539 2513 2508 2518 2529 2539 2550 2555 2562 2575 2590 2603 2625 2650 2674 2689 2696 2702 2703 2727 2743 2756 2762 2760 2753 2752 2755 2759 2762 2765 2771 2803 2821 2874 2908 2929 2935 2914 2899 2889 2870 2860 2833 2821 2794 2778 2753 2719 2702 2667 2647 2628 2616 2608 2597 2599 2591 2579 2556 2555 2564 2559 2559 2578 2605 2649 2679 2712 2772 2793 2819 2854 2902 2918 2938 2960 2976 2992 2988 2985 2996 3003 3029 3078 3130 3165 3174 3152 3144 3177 3216 3305 3323 3292 3267 3231 3198 3158 3137 3126 3114 3108 3111 3115 3117 3100 3092 3093 3092 3093 3075 3038 3029 2994 2955 2954 2953 2948 2934 2936 2939 2999 3025 3051 3044 3020 2994 2985 2962 2935 2933 2927 2922 2923 2933 2968 2975 3015 3051 3055 3047 3032 2989 2969 2961 2921 2874 2857 2808 2775 2749 2720 2697 2687 2646 2625 2614 2598 2599 2589 2557 2534 2513 2511 2495 2503 2486 2480 2478 2476 2456 2432 2417 2403 2395 2401 2396 2418 2428 2430 2421 2420 2425 2447 2460 2445 2440 2438 2426 2448 2432 2442 2447 2453 2439 2460 2463 2473 2476 2493 2509 2511 2494 2493 2495 2487 2464 2458 2445 2425 2405 2387 2380 2393 2392 2392 2408 2418 2422 2411 2405 2407 2407 2417 2424 2431 2404 2351 2324 2305 2301 2299 2298 2302 2311 2326 2363 2303 2310 2311 2299 2292 2259 2243 2232 2202 2173 2144 2116 2097 2065 1994 1940 1877 1830 1774 1763 1764 1780 1803 1814 1828 1857 1868 1886 1907 1927 1942 1958 1979 2005 2021 2043 2083 2108 2118 2126 2134 2145 2159 2183 2195 0 0 0 0 0 0 0 0 0 0 0 0
0 2336 2360 2380 2421 2441 2465 2472 2468 2469 2474 2473 2475 2480 2486 2498 2492 2492 2491 2490 2506 2523 2533 2547 2560 2575 2601 2613 2614 2648 2679 2701 2727 2772 2803 2839 2866 2887 2885 2870 2814 2793 2791 2773 2774 2777 2783 2795 2800 2789 2769 2746 2736 2715 2692 2677 2667 2652 2636 2624 2617 2604 2593 2578 2549 2536 2507 2490 2489 2505 2525 2539 2552 2555 2556 2571 2585 2598 2644 2672 2684 2689 2694 2694 2699 2720 2724 2741 2750 2725 2727 2736 2744 2761 2772 2782 2800 2817 2843 2865 2915 2934 2911 2873 2855 2844 2842 2833 2831 2823 2797 2776 2764 2748 2730 2704 2678 2648 2630 2615 2603 2600 2593 2581 2556 2563 2574 2578 2578 2601 2632 2671 2687 2740 2773 2812 2836 2874 2911 2955 2968 2986 2998 3014 3023 3023 3041 3032 3063 3112 3157 3203 3210 3193 3209 3231 3297 3319 3315 3268 3240 3211 3183 3139 3118 3106 3079 3073 3063 3074 3075 3070 3066 3071 3076 3080 3060 3046 3026 2994 2975 2941 2941 2937 2928 2927 2933 2969 3007 3020 3016 2991 2971 2956 2939 2919 2926 2926 2915 2914 2918 2940 2963 2990 3009 3056 3051 3040 3020 2999 2970 2936 2904 2894 2867 2840 2803 2780 2760 2719 2669 2640 2627 2619 2621 2623 2606 2603 2586 2586 2552 2527 2509 2498 2497 2496 2523 2483 2473 2451 2436 2443 2443 2438 2442 2449 2448 2470 2495 2507 2512 2511 2497 2490 2482 2468 2461 2459 2479 2505 2500 2514 2521 2543 2559 2580 2565 2523 2522 2521 2517 2525 2509 2494 2477 2468 2460 2452 2420 2418 2414 2423 2423 2467 2470 2473 2469 2468 2462 2463 2452 2444 2393 2353 2325 2290 2278 2280 2276 2266 2268 2276 2273 2272 2279 2280 2274 2254 2253 2237 2247 2218 2202 2175 2139 2104 2058 1976 1925 1873 1838 1800 1761 1762 1772 1785 1799 1818 1846 1867 1888 1914 1943 1948 1961 1976 2017 2033 2058 2087 2112 2121 2128 2137 2150 2166 2186 2197 0 0 0 0 0 0 0 0 0 0 0 0
0 2347 2364 2383 2407 2450 2468 2470 2478 2487 2483 2478 2472 2482 2496 2488 2484 2476 2480 2486 2488 2505 2524 2531 2542 2555 2580 2596 2609 2624 2677 2694 2718 2761 2791 2824 2838 2849 2843 2827 2790 2778 2762 2752 2758 2740 2744 2742 2760 2770 2781 2767 2746 2728 2707 2682 2667 2662 2641 2629 2618 2601 2581 2560 2551 2518 2497 2478 2485 2494 2510 2524 2535 2542 2549 2569 2584 2605 2635 2677 2683 2678 2679 2681 2677 2691 2692 2699 2710 2713 2714 2716 2727 2739 2731 2755 2783 2813 2845 2864 2899 2913 2892 2856 2835 2827 2802 2795 2800 2794 2789 2777 2769 2760 2735 2716 2687 2670 2648 2655 2631 2624 2608 2591 2577 2565 2578 2586 2591 2611 2637 2674 2716 2758 2801 2830 2858 2889 2917 2969 2984 2999 3015 3062 3076 3091 3107 3128 3126 3171 3206 3218 3216 3231 3234 3252 3292 3300 3285 3253 3205 3194 3174 3134 3118 3104 3081 3071 3052 3048 3050 3047 3046 3039 3038 3035 3039 3036 3028 2995 2971 2936 2930 2922 2917 2917 2929 2941 3000 3008 2995 2971 2940 2925 2909 2915 2914 2911 2902 2902 2912 2929 2961 2977 2980 2997 3044 3052 3055 3051 3025 2988 2942 2908 2895 2856 2835 2814 2769 2747 2704 2679 2675 2668 2659 2648 2643 2632 2654 2643 2620 2587 2553 2544 2538 2537 2536 2536 2491 2481 2504 2484 2481 2475 2476 2482 2477 2518 2533 2535 2539 2553 2577 2565 2538 2540 2526 2512 2523 2524 2530 2530 2566 2584 2628 2644 2623 2582 2574 2570 2559 2544 2534 2514 2497 2486 2500 2491 2487 2488 2483 2491 2496 2485 2486 2488 2485 2482 2486 2481 2449 2422 2381 2363 2323 2281 2260 2258 2251 2243 2221 2228 2233 2231 2230 2223 2224 2223 2232 2231 2243 2228 2214 2185 2149 2090 2033 1948 1909 1875 1834 1802 1769 1765 1773 1781 1808 1826 1843 1879 1894 1921 1944 1959 1965 1979 2020 2041 2060 2081 2115 2124 2129 2136 2152 2169 2183 2204 0 0 0 0 0 0 0 0 0 0 0 0
0 0 2374 2391 2411 2443 2465 2478 2480 2481 2482 2475 2479 2487 2486 2478 2449 2448 2459 2471 2483 2500 2513 2525 2536 2550 2571 2587 2599 2619 2658 2684 2712 2755 2780 2809 2828 2805 2794 2765 2741 2724 2722 2723 2725 2725 2731 2723 2730 2728 2753 2764 2763 2760 2746 2717 2682 2665 2641 2627 2614 2597 2562 2545 2522 2498 2485 2481 2475 2481 2500 2521 2533 2541 2555 2573 2601 2625 2667 2675 2677 2667 2666 2667 2675 2686 2679 2660 2671 2676 2685 2696 2697 2707 2713 2735 2755 2801 2835 2838 2860 2870 2860 2839 2812 2806 2792 2783 2776 2771 2764 2743 2745 2743 2736 2725 2716 2702 2683 2668 2645 2636 2623 2625 2601 2580 2587 2593 2605 2617 2640 2676 2719 2754 2800 2832 2870 2898 2932 2979 2997 3035 3058 3086 3107 3131 3143 3189 3210 3230 3293 3299 3284 3267 3269 3262 3277 3289 3271 3244 3198 3185 3159 3135 3117 3091 3075 3057 3043 3037 3041 3040 3037 3017 3016 3013 3011 3013 3006 2996 2965 2942 2923 2916 2912 2908 2916 2934 2987 2976 2962 2952 2926 2912 2900 2898 2898 2878 2885 2890 2898 2907 2918 2952 2963 2989 3043 3056 3061 3073 3074 3035 3015 2950 2933 2899 2876 2832 2798 2763 2714 2727 2714 2716 2702 2671 2664 2694 2681 2666 2663 2619 2580 2581 2579 2592 2613 2601 2572 2559 2555 2509 2515 2504 2504 2545 2560 2584 2589 2598 2599 2614 2604 2593 2594 2571 2554 2573 2576 2595 2601 2621 2640 2649 2658 2667 2642 2594 2594 2599 2597 2573 2563 2553 2541 2536 2529 2519 2516 2506 2500 2499 2501 2496 2496 2491 2482 2477 2472 2469 2448 2400 2379 2356 2299 2272 2242 2220 2207 2195 2196 2209 2216 2218 2211 2186 2169 2165 2171 2185 2223 2231 2208 2186 2151 2075 2025 1921 1899 1865 1826 1809 1770 1771 1774 1784 1817 1838 1853 1878 1908 1929 1947 1960 1970 1984 2002 2039 2062 2084 2114 2125 2131 2141 2157 2168 2182 2211 0 0 0 0 0 0 0 0 0 0 0 0
0 0 2375 2389 2405 2424 2452 2470 2470 2457 2457 2460 2466 2481 2479 2462 2441 2436 2440 2453 2470 2490 2503 2517 2530 2548 2556 2578 2590 2609 2647 2673 2698 2729 2772 2788 2800 2783 2764 2753 2728 2706 2685 2690 2663 2677 2688 2683 2685 2700 2734 2758 2765 2761 2744 2706 2686 2664 2638 2618 2604 2584 2561 2545 2512 2497 2468 2459 2459 2471 2492 2518 2530 2550 2557 2578 2613 2638 2674 2673 2654 2650 2643 2649 2655 2670 2672 2660 2654 2659 2674 2675 2687 2687 2701 2719 2739 2778 2808 2830 2841 2856 2853 2839 2803 2795 2780 2775 2759 2749 2743 2733 2727 2721 2726 2727 2728 2727 2702 2689 2678 2670 2661 2634 2611 2593 2593 2596 2615 2647 2664 2695 2738 2768 2807 2832 2871 2894 2933 2963 3011 3061 3082 3129 3163 3198 3214 3219 3234 3268 3310 3309 3297 3279 3266 3257 3256 3258 3253 3241 3214 3174 3152 3132 3107 3087 3075 3060 3051 3027 3021 3012 3001 3002 3003 3003 3003 2982 2979 2976 2955 2941 2906 2907 2907 2897 2902 2909 2956 2954 2940 2924 2906 2897 2884 2877 2871 2870 2873 2878 2891 2891 2895 2927 2946 2960 3013 3041 3059 3076 3077 3061 3025 3026 2964 2928 2906 2857 2827 2802 2765 2750 2742 2728 2722 2739 2747 2748 2749 2726 2695 2665 2624 2604 2606 2636 2644 2669 2648 2630 2622 2582 2566 2574 2579 2592 2599 2624 2624 2673 2664 2682 2655 2662 2661 2628 2622 2599 2600 2623 2638 2677 2687 2709 2725 2720 2689 2658 2627 2624 2613 2592 2579 2571 2552 2548 2545 2541 2536 2528 2508 2493 2492 2484 2484 2455 2445 2432 2423 2415 2403 2374 2358 2340 2309 2259 2229 2202 2180 2170 2162 2172 2175 2172 2172 2170 2159 2155 2154 2139 2146 2171 2187 2166 2132 2065 2009 1917 1897 1860 1822 1800 1776 1782 1786 1795 1830 1849 1866 1881 1913 1930 1950 1971 1984 2003 2013 2045 2071 2087 2103 2118 2127 2139 2155 2162 2176 2192 0 0 0 0 0 0 0 0 0 0 0 0
0 0 2336 2377 2396 2414 2441 2457 2452 2430 2434 2440 2444 2441 2438 2431 2427 2428 2429 2438 2459 2480 2487 2495 2512 2526 2541 2564 2583 2609 2634 2670 2698 2723 2754 2770 2768 2754 2718 2713 2698 2673 2675 2663 2640 2655 2643 2642 2637 2653 2676 2711 2733 2727 2723 2695 2674 2659 2639 2606 2589 2570 2557 2536 2511 2494 2464 2457 2456 2468 2493 2520 2534 2561 2573 2594 2619 2649 2665 2659 2648 2644 2639 2624 2633 2647 2656 2639 2637 2640 2651 2664 2678 2684 2693 2714 2731 2758 2775 2781 2812 2838 2839 2834 2815 2796 2784 2776 2755 2739 2729 2718 2714 2709 2711 2718 2723 2725 2722 2704 2698 2686 2667 2653 2638 2623 2613 2618 2629 2658 2673 2702 2732 2801 2839 2857 2889 2914 2943 2967 3015 3057 3087 3131 3180 3207 3233 3248 3263 3286 3317 3309 3296 3281 3257 3239 3231 3217 3226 3208 3186 3157 3136 3112 3105 3085 3081 3073 3059 3046 3040 3025 2995 2983 2977 2962 2961 2961 2961 2956 2947 2926 2888 2885 2890 2887 2884 2884 2929 2945 2929 2916 2907 2891 2879 2868 2869 2870 2860 2857 2865 2874 2881 2924 2938 2948 2962 3015 3032 3061 3077 3080 3077 3066 2977 2940 2923 2870 2867 2826 2825 2787 2776 2768 2770 2787 2790 2795 2778 2771 2767 2740 2701 2673 2670 2683 2690 2690 2686 2665 2648 2621 2642 2648 2668 2672 2652 2687 2697 2708 2705 2705 2701 2681 2717 2715 2674 2643 2641 2680 2698 2713 2716 2736 2742 2728 2718 2689 2677 2663 2648 2641 2603 2578 2551 2540 2539 2539 2518 2507 2494 2464 2456 2445 2442 2439 2428 2417 2408 2400 2377 2360 2341 2324 2284 2225 2210 2187 2171 2155 2148 2151 2137 2140 2132 2118 2114 2109 2111 2105 2110 2122 2145 2147 2074 2049 1965 1922 1889 1864 1815 1795 1779 1788 1793 1801 1829 1850 1872 1892 1923 1936 1956 1970 1992 2008 2019 2046 2062 2076 2087 2103 2122 2130 2149 2164 2178 2193 0 0 0 0 0 0 0 0 0 0 0 0
0 0 2331 2346 2375 2395 2429 2434 2422 2420 2426 2437 2436 2429 2417 2418 2422 2426 2428 2438 2449 2470 2484 2490 2508 2522 2541 2559 2586 2612 2636 2674 2692 2714 2744 2761 2756 2728 2703 2675 2668 2642 2628 2620 2614 2616 2615 2609 2616 2631 2657 2664 2686 2673 2665 2663 2636 2619 2614 2584 2569 2557 2557 2516 2498 2479 2461 2458 2457 2463 2498 2521 2546 2565 2580 2606 2628 2649 2653 2632 2627 2625 2614 2609 2622 2638 2646 2637 2627 2626 2630 2643 2653 2667 2676 2702 2722 2744 2769 2780 2778 2786 2829 2830 2829 2811 2799 2788 2773 2745 2732 2722 2712 2704 2699 2698 2705 2710 2710 2703 2694 2683 2668 2660 2652 2645 2642 2641 2650 2669 2700 2727 2760 2817 2854 2875 2895 2949 2981 3003 3038 3066 3093 3127 3170 3201 3210 3242 3257 3278 3296 3292 3279 3258 3228 3212 3203 3201 3205 3200 3184 3153 3131 3111 3099 3088 3082 3073 3065 3055 3045 3029 3000 2983 2973 2952 2937 2934 2932 2921 2915 2891 2890 2870 2877 2872 2872 2873 2921 2938 2915 2903 2898 2881 2868 2860 2858 2860 2858 2838 2832 2840 2856 2875 2918 2924 2952 3006 3026 3047 3060 3069 3082 3075 3026 2992 2972 2929 2878 2856 2840 2806 2801 2839 2849 2864 2861 2849 2820 2816 2791 2769 2721 2703 2728 2732 2752 2748 2730 2726 2707 2690 2670 2680 2696 2697 2735 2756 2769 2765 2771 2763 2753 2754 2757 2748 2718 2676 2709 2734 2768 2783 2791 2799 2795 2765 2740 2718 2705 2688 2680 2655 2632 2604 2567 2541 2521 2511 2497 2490 2480 2456 2429 2413 2404 2392 2395 2396 2381 2374 2356 2344 2332 2305 2253 2224 2192 2171 2151 2135 2130 2128 2124 2114 2108 2095 2083 2083 2086 2074 2069 2064 2058 2031 2031 2007 1958 1918 1884 1851 1806 1787 1776 1782 1797 1819 1837 1853 1880 1903 1928 1950 1965 1976 1997 2007 2013 2030 2050 2067 2078 2096 2120 2131 2142 2166 2183 2205 0 0 0 0 0 0 0 0 0 0 0 0
0 0 2339 2348 2363 2383 2403 2404 2396 2386 2392 2400 2402 2411 2413 2415 2421 2431 2440 2451 2455 2476 2486 2494 2515 2531 2547 2563 2589 2613 2639 2666 2694 2712 2728 2738 2728 2699 2683 2662 2644 2631 2605 2607 2568 2576 2576 2579 2581 2611 2628 2646 2662 2641 2638 2636 2589 2589 2579 2553 2538 2532 2528 2509 2497 2481 2464 2452 2459 2473 2499 2526 2552 2564 2585 2606 2618 2633 2633 2623 2619 2605 2590 2585 2581 2596 2618 2624 2617 2623 2628 2635 2644 2648 2656 2686 2699 2717 2733 2754 2760 2778 2815 2827 2839 2837 2817 2808 2794 2758 2738 2723 2712 2704 2700 2700 2700 2701 2704 2702 2690 2685 2678 2675 2671 2655 2652 2654 2663 2686 2739 2765 2799 2823 2885 2899 2926 2964 3000 3017 3028 3068 3086 3115 3146 3157 3164 3177 3217 3249 3281 3286 3271 3250 3231 3209 3202 3190 3183 3183 3176 3155 3133 3110 3096 3086 3079 3072 3066 3060 3055 3043 3024 3003 2977 2943 2925 2925 2916 2906 2893 2878 2866 2851 2845 2847 2848 2862 2904 2923 2910 2894 2880 2867 2854 2846 2844 2841 2837 2835 2828 2833 2845 2845 2877 2904 2919 2960 2981 2988 3024 3037 3052 3070 3064 3027 3004 2983 2931 2917 2900 2861 2864 2860 2881 2894 2886 2885 2872 2851 2826 2804 2780 2766 2772 2774 2776 2774 2751 2779 2768 2750 2742 2749 2762 2765 2768 2772 2785 2794 2789 2817 2812 2820 2829 2816 2786 2751 2730 2781 2788 2817 2818 2863 2841 2809 2780 2758 2735 2718 2691 2656 2637 2611 2588 2537 2513 2491 2473 2448 2438 2426 2411 2400 2391 2375 2372 2356 2348 2331 2319 2310 2290 2264 2241 2223 2188 2163 2142 2117 2105 2100 2099 2090 2075 2061 2055 2057 2050 2048 2056 2017 2010 1993 1965 1956 1929 1892 1876 1839 1809 1788 1774 1769 1797 1820 1840 1852 1888 1915 1930 1955 1963 1973 1987 1999 2010 2019 2041 2057 2074 2093 2119 2137 2151 2172 2192 2225 2246 0 0 0 0 0 0 0 0 0 0 0
0 0 2363 2362 2370 2374 2388 2386 2382 2381 2384 2392 2397 2399 2411 2410 2416 2428 2450 2457 2464 2483 2501 2507 2527 2544 2553 2567 2593 2617 2637 2655 2694 2714 2722 2730 2693 2681 2660 2634 2605 2591 2579 2558 2550 2537 2557 2559 2556 2572 2599 2618 2616 2600 2601 2591 2576 2568 2560 2543 2521 2497 2493 2487 2477 2466 2459 2451 2456 2474 2492 2537 2555 2553 2567 2584 2597 2602 2600 2604 2596 2591 2582 2575 2569 2563 2571 2589 2603 2607 2616 2622 2632 2637 2647 2673 2689 2693 2701 2707 2732 2751 2788 2818 2835 2842 2832 2819 2801 2757 2742 2735 2727 2716 2707 2703 2706 2705 2707 2705 2693 2690 2687 2687 2687 2680 2683 2692 2701 2729 2748 2792 2815 2845 2894 2942 2962 2985 3016 3017 3027 3058 3084 3104 3123 3138 3147 3144 3182 3211 3276 3286 3267 3251 3233 3214 3203 3188 3178 3161 3167 3157 3122 3098 3088 3082 3074 3066 3063 3057 3047 3039 3022 3002 2982 2959 2921 2913 2901 2897 2883 2871 2860 2842 2824 2822 2826 2855 2882 2902 2898 2887 2872 2859 2844 2843 2832 2823 2822 2817 2817 2813 2823 2835 2850 2890 2906 2929 2933 2949 2972 2980 3008 3031 3052 3038 3016 3004 2976 2940 2939 2930 2930 2935 2954 2965 2948 2918 2891 2870 2843 2819 2850 2860 2864 2866 2838 2818 2812 2819 2799 2779 2768 2780 2821 2830 2829 2833 2838 2840 2842 2851 2840 2854 2848 2828 2829 2815 2821 2835 2855 2875 2882 2885 2872 2831 2800 2768 2738 2723 2702 2675 2631 2609 2588 2542 2518 2495 2481 2442 2427 2412 2393 2385 2369 2355 2346 2343 2334 2322 2306 2292 2265 2230 2208 2188 2164 2138 2128 2116 2093 2090 2090 2078 2054 2046 2042 2033 2021 2006 1997 1997 1991 1968 1952 1942 1904 1880 1846 1815 1795 1781 1767 1768 1787 1815 1838 1852 1882 1909 1927 1935 1949 1955 1966 1992 2006 2018 2032 2055 2078 2100 2134 2160 2170 2179 2205 2224 2245 0 0 0 0 0 0 0 0 0 0 0
0 0 2377 2368 2365 2370 2374 2378 2386 2390 2393 2401 2402 2404 2413 2413 2428 2429 2442 2452 2466 2479 2503 2515 2532 2551 2564 2577 2593 2618 2631 2645 2679 2689 2688 2691 2683 2670 2640 2614 2589 2573 2551 2526 2516 2492 2527 2541 2548 2554 2590 2602 2603 2563 2552 2558 2551 2534 2518 2507 2492 2473 2474 2468 2458 2440 2443 2448 2460 2477 2503 2543 2544 2548 2554 2575 2587 2589 2572 2577 2574 2564 2563 2547 2539 2549 2562 2572 2586 2586 2591 2606 2614 2622 2634 2645 2659 2673 2689 2700 2721 2743 2758 2811 2835 2852 2849 2832 2814 2787 2746 2736 2733 2726 2715 2720 2717 2715 2711 2709 2710 2704 2696 2697 2700 2695 2689 2731 2747 2763 2791 2828 2851 2890 2916 2954 2970 2992 3010 2997 3008 3020 3055 3069 3088 3112 3122 3136 3157 3203 3255 3273 3257 3242 3230 3220 3213 3193 3172 3156 3162 3150 3128 3095 3081 3075 3066 3062 3055 3048 3041 3032 3012 2993 2980 2968 2950 2917 2893 2877 2865 2854 2836 2828 2814 2808 2814 2841 2858 2887 2884 2862 2842 2833 2823 2820 2818 2816 2812 2808 2797 2798 2801 2802 2817 2853 2887 2891 2908 2932 2950 2946 2958 2999 3029 3048 3044 3036 3050 3012 2978 2974 2993 2996 3039 3019 2973 2954 2930 2910 2900 2869 2858 2895 2908 2915 2933 2902 2877 2877 2866 2850 2839 2840 2862 2875 2861 2872 2905 2912 2925 2916 2924 2916 2887 2872 2868 2861 2849 2863 2892 2885 2885 2889 2875 2856 2831 2781 2750 2719 2704 2686 2659 2636 2609 2584 2545 2516 2496 2449 2435 2408 2390 2376 2354 2342 2329 2319 2306 2302 2282 2266 2256 2210 2197 2173 2142 2115 2096 2087 2066 2065 2066 2056 2047 2044 2037 2022 2003 1995 1984 1978 1958 1941 1920 1908 1895 1872 1836 1810 1790 1774 1765 1760 1780 1804 1838 1858 1876 1907 1922 1933 1944 1947 1961 1975 1996 2015 2034 2061 2080 2101 2124 2164 2184 2197 2215 2238 2269 0 0 0 0 0 0 0 0 0 0 0
0 0 2387 2372 2361 2366 2372 2378 2396 2406 2419 2435 2436 2435 2435 2442 2442 2437 2440 2450 2462 2471 2503 2517 2528 2545 2572 2583 2595 2615 2629 2646 2660 2657 2654 2656 2648 2635 2621 2599 2564 2546 2529 2509 2495 2462 2463 2491 2507 2516 2551 2575 2569 2554 2522 2525 2525 2521 2469 2445 2437 2430 2421 2413 2427 2436 2443 2446 2459 2476 2495 2523 2525 2525 2529 2527 2536 2540 2550 2556 2560 2561 2559 2542 2531 2534 2531 2534 2548 2568 2577 2583 2602 2610 2627 2622 2633 2642 2660 2675 2706 2729 2753 2802 2831 2851 2858 2825 2808 2800 2776 2762 2751 2745 2738 2733 2732 2730 2721 2726 2723 2719 2721 2723 2732 2736 2734 2759 2770 2791 2825 2864 2897 2906 2919 2951 2957 2969 2983 2989 2998 3009 3041 3056 3055 3075 3091 3106 3133 3193 3228 3248 3259 3242 3235 3226 3208 3191 3167 3154 3142 3126 3124 3100 3090 3079 3071 3062 3051 3046 3031 3024 2997 2987 2976 2972 2951 2922 2894 2877 2866 2840 2830 2818 2799 2795 2798 2806 2851 2878 2881 2856 2837 2814 2805 2792 2797 2804 2791 2789 2786 2784 2793 2791 2807 2825 2842 2865 2875 2889 2906 2918 2950 2978 3004 3040 3053 3062 3074 3084 3103 3100 3077 3093 3089 3058 3005 2974 2961 2971 2936 2928 2936 2948 2962 2969 2951 2916 2903 2903 2910 2932 2924 2917 2947 2936 2934 2936 2940 2938 2932 2937 2932 2920 2903 2888 2893 2893 2889 2892 2887 2877 2871 2863 2863 2828 2803 2772 2754 2718 2704 2693 2665 2645 2619 2590 2551 2530 2509 2481 2447 2422 2392 2363 2349 2342 2332 2312 2297 2279 2253 2236 2228 2206 2172 2141 2124 2101 2082 2069 2058 2043 2045 2045 2032 2026 2017 2001 1994 1985 1975 1968 1946 1921 1910 1891 1881 1858 1815 1795 1785 1782 1767 1762 1771 1800 1817 1849 1867 1898 1916 1929 1944 1946 1954 1966 1993 2004 2027 2052 2085 2106 2131 2165 2187 2200 2218 2253 2277 0 0 0 0 0 0 0 0 0 0 0
0 0 2409 2387 2371 2378 2384 2394 2404 2417 2437 2453 2450 2463 2463 2462 2457 2450 2447 2460 2463 2469 2490 2514 2523 2537 2566 2583 2595 2604 2622 2636 2633 2634 2644 2632 2631 2618 2594 2580 2537 2522 2505 2489 2465 2446 2444 2462 2489 2511 2523 2553 2548 2532 2491 2478 2466 2456 2440 2425 2424 2413 2391 2398 2415 2441 2452 2459 2462 2474 2489 2501 2514 2510 2513 2500 2501 2503 2510 2513 2516 2536 2550 2536 2524 2519 2524 2516 2513 2536 2561 2571 2577 2592 2605 2617 2623 2627 2641 2652 2691 2719 2746 2774 2817 2840 2848 2829 2813 2798 2784 2764 2759 2756 2759 2761 2758 2755 2749 2743 2739 2739 2745 2748 2774 2772 2788 2816 2832 2848 2864 2882 2899 2904 2916 2928 2925 2941 2960 2974 2986 2991 3010 3028 3037 3051 3070 3091 3124 3164 3208 3246 3259 3244 3235 3233 3198 3188 3169 3160 3143 3135 3122 3123 3104 3092 3086 3070 3058 3051 3043 3025 3009 3016 2984 2968 2951 2939 2908 2879 2862 2840 2831 2813 2802 2786 2779 2787 2813 2845 2861 2845 2832 2809 2792 2784 2786 2792 2776 2764 2760 2757 2765 2767 2774 2784 2824 2848 2863 2872 2873 2896 2921 2950 2969 2994 3036 3064 3079 3093 3114 3148 3159 3168 3153 3106 3054 3018 3012 2995 2971 2983 2971 3024 3040 3028 3020 3015 2966 2972 2979 2966 2977 2974 2979 3019 3008 2988 2965 2951 2931 2930 2908 2879 2873 2882 2890 2856 2863 2858 2842 2821 2794 2796 2798 2792 2788 2759 2749 2717 2702 2687 2674 2658 2648 2619 2580 2541 2512 2491 2451 2425 2397 2355 2340 2328 2319 2306 2291 2266 2248 2229 2212 2171 2153 2131 2108 2086 2068 2052 2045 2035 2035 2025 2018 1999 1996 1985 1975 1968 1960 1948 1926 1915 1896 1882 1873 1822 1802 1789 1784 1783 1775 1772 1774 1788 1810 1838 1857 1876 1891 1903 1920 1937 1948 1959 1984 2002 2026 2050 2081 2103 2139 2182 2200 2224 2247 2277 2296 0 0 0 0 0 0 0 0 0 0 0
0 0 2414 2395 2382 2403 2417 2417 2428 2451 2471 2483 2471 2463 2466 2466 2460 2456 2449 2456 2462 2465 2479 2504 2514 2532 2564 2580 2591 2600 2607 2610 2601 2589 2579 2594 2595 2581 2585 2570 2548 2506 2479 2466 2438 2424 2422 2430 2455 2477 2502 2532 2535 2521 2494 2455 2433 2406 2392 2385 2374 2386 2385 2401 2423 2454 2462 2466 2464 2474 2475 2486 2493 2491 2485 2484 2493 2494 2499 2486 2497 2511 2518 2518 2510 2504 2513 2505 2499 2524 2555 2564 2568 2576 2577 2596 2609 2615 2627 2642 2678 2710 2741 2766 2800 2828 2840 2846 2805 2786 2784 2771 2765 2761 2765 2775 2786 2789 2786 2788 2791 2790 2782 2779 2788 2799 2812 2828 2842 2857 2864 2876 2879 2877 2879 2893 2920 2937 2954 2968 2979 2975 2982 3005 3019 3028 3052 3075 3110 3146 3199 3251 3264 3245 3234 3221 3195 3186 3172 3159 3143 3149 3136 3129 3111 3100 3097 3089 3083 3073 3067 3047 3031 3023 3014 2987 2963 2945 2919 2897 2872 2861 2840 2823 2811 2788 2776 2773 2783 2825 2835 2832 2821 2810 2783 2769 2768 2774 2764 2750 2740 2739 2730 2742 2743 2746 2783 2799 2817 2829 2860 2884 2910 2938 2950 2971 2983 3039 3071 3100 3140 3173 3184 3193 3171 3128 3110 3088 3076 3048 3054 3049 3049 3060 3053 3048 3031 3023 3039 3041 3040 3030 3053 3053 3048 3028 3021 2996 2965 2936 2893 2878 2854 2836 2825 2827 2817 2831 2830 2815 2808 2796 2759 2745 2742 2750 2735 2716 2719 2713 2695 2685 2674 2655 2637 2620 2603 2567 2528 2503 2459 2424 2393 2366 2341 2325 2316 2299 2277 2252 2236 2208 2181 2164 2150 2128 2110 2081 2059 2042 2028 2013 2009 2004 1997 1986 1986 1981 1971 1962 1935 1924 1900 1888 1863 1852 1822 1803 1793 1787 1784 1781 1780 1778 1774 1785 1799 1825 1847 1857 1882 1896 1908 1933 1943 1961 1977 2005 2031 2049 2078 2104 2138 2169 2211 2240 2262 2290 2317 0 0 0 0 0 0 0 0 0 0 0
0 0 2423 2401 2390 2398 2429 2442 2444 2466 2489 2492 2477 2463 2466 2463 2457 2450 2447 2451 2458 2462 2472 2492 2503 2522 2538 2564 2581 2589 2595 2593 2593 2567 2558 2543 2554 2547 2555 2549 2533 2484 2462 2448 2424 2410 2415 2414 2442 2457 2484 2493 2496 2486 2470 2450 2416 2387 2378 2367 2331 2338 2372 2387 2431 2457 2460 2459 2459 2468 2471 2481 2462 2467 2463 2465 2470 2470 2473 2472 2490 2504 2503 2507 2493 2486 2485 2483 2492 2513 2540 2554 2568 2571 2567 2585 2601 2605 2620 2636 2653 2693 2725 2749 2798 2818 2837 2839 2796 2759 2743 2734 2742 2749 2775 2788 2794 2801 2808 2809 2805 2799 2785 2781 2787 2800 2821 2831 2838 2844 2849 2858 2860 2860 2848 2868 2911 2929 2944 2955 2961 2965 2974 2988 3011 3025 3037 3070 3113 3140 3208 3269 3265 3256 3229 3219 3194 3181 3174 3165 3162 3150 3149 3144 3135 3120 3105 3097 3097 3085 3074 3088 3084 3075 3056 3025 3003 2975 2935 2914 2902 2869 2846 2839 2821 2794 2776 2766 2759 2781 2823 2817 2821 2807 2779 2758 2751 2749 2739 2727 2714 2710 2707 2722 2735 2745 2764 2780 2790 2797 2830 2861 2890 2905 2933 2952 2979 3023 3069 3101 3140 3189 3220 3222 3199 3183 3165 3135 3115 3103 3078 3100 3097 3089 3074 3039 3036 3036 3045 3041 3047 3052 3066 3070 3058 3024 3006 2973 2945 2898 2877 2866 2852 2818 2808 2783 2779 2778 2787 2789 2783 2766 2750 2734 2728 2730 2720 2679 2668 2653 2654 2661 2651 2643 2625 2612 2601 2563 2528 2489 2469 2437 2402 2372 2346 2328 2312 2305 2276 2255 2235 2194 2167 2152 2136 2111 2100 2085 2049 2037 2026 2014 2003 1986 1974 1968 1963 1956 1951 1942 1927 1910 1891 1871 1852 1820 1797 1792 1786 1784 1781 1780 1781 1772 1772 1783 1791 1816 1839 1853 1874 1887 1901 1913 1942 1963 1983 2007 2027 2043 2066 2110 2142 2170 2211 2240 2262 2286 2325 0 0 0 0 0 0 0 0 0 0 0
0 0 2439 2415 2397 2404 2436 2459 2468 2468 2492 2491 2472 2464 2467 2450 2443 2439 2437 2444 2449 2453 2462 2476 2502 2519 2530 2544 2565 2571 2574 2564 2561 2550 2523 2525 2528 2530 2536 2530 2507 2470 2445 2426 2410 2387 2378 2400 2426 2445 2467 2479 2473 2463 2442 2413 2387 2366 2352 2330 2319 2335 2360 2387 2413 2434 2451 2455 2456 2455 2452 2448 2448 2451 2453 2459 2452 2433 2438 2446 2471 2478 2484 2490 2479 2472 2474 2475 2489 2500 2516 2542 2554 2559 2559 2566 2574 2590 2616 2636 2653 2676 2708 2737 2772 2807 2821 2811 2785 2763 2743 2729 2731 2739 2733 2758 2776 2794 2804 2809 2803 2778 2757 2757 2766 2770 2765 2772 2774 2783 2801 2819 2826 2834 2841 2861 2891 2924 2935 2942 2943 2949 2953 2970 2989 3015 3035 3071 3111 3141 3180 3251 3257 3250 3229 3218 3208 3195 3179 3178 3172 3155 3153 3154 3150 3137 3132 3127 3116 3104 3114 3112 3102 3096 3090 3098 3061 3037 2996 2979 2947 2918 2874 2853 2830 2811 2779 2765 2749 2749 2761 2763 2760 2774 2767 2751 2741 2739 2727 2702 2688 2687 2679 2686 2706 2705 2736 2756 2776 2785 2810 2834 2852 2873 2891 2923 2956 2978 3047 3101 3153 3189 3214 3213 3212 3202 3199 3183 3146 3139 3118 3109 3102 3079 3065 3011 3004 2999 3000 3006 3031 3052 3065 3068 3056 3037 3001 2951 2924 2874 2862 2851 2825 2790 2781 2768 2766 2761 2773 2750 2752 2747 2729 2717 2713 2704 2677 2656 2647 2633 2626 2591 2591 2590 2586 2586 2569 2539 2503 2484 2460 2437 2413 2392 2359 2332 2314 2301 2260 2239 2213 2193 2156 2141 2122 2100 2088 2069 2050 2032 2027 2010 1995 1980 1970 1960 1950 1928 1932 1911 1898 1887 1871 1841 1824 1811 1794 1792 1788 1782 1784 1781 1780 1771 1768 1777 1791 1811 1831 1848 1864 1891 1901 1914 1942 1959 1972 1996 2028 2044 2075 2119 2139 2182 2203 2237 2259 2278 2315 0 0 0 0 0 0 0 0 0 0 0
0 0 2447 2424 2412 2406 2420 2452 2468 2480 2496 2485 2472 2453 2437 2433 2431 2425 2425 2432 2427 2437 2447 2465 2490 2508 2525 2534 2554 2564 2566 2555 2544 2527 2507 2491 2482 2485 2480 2492 2494 2477 2447 2422 2383 2354 2342 2353 2385 2412 2436 2447 2455 2452 2425 2410 2377 2337 2321 2294 2304 2318 2339 2376 2399 2421 2443 2451 2454 2439 2419 2422 2419 2424 2430 2430 2434 2425 2419 2432 2446 2463 2463 2469 2466 2458 2452 2462 2479 2493 2509 2536 2536 2545 2543 2552 2562 2576 2605 2623 2640 2661 2703 2735 2768 2802 2806 2803 2782 2750 2725 2712 2705 2722 2720 2739 2754 2774 2774 2770 2754 2747 2730 2716 2725 2731 2736 2741 2745 2757 2780 2791 2809 2826 2833 2849 2878 2922 2930 2931 2936 2939 2943 2950 2976 3000 3026 3053 3106 3151 3183 3235 3249 3245 3238 3232 3222 3209 3194 3192 3183 3171 3157 3154 3157 3152 3149 3146 3157 3141 3138 3136 3142 3144 3146 3133 3077 3061 3035 3003 3021 2951 2925 2870 2855 2828 2798 2775 2748 2742 2741 2741 2718 2728 2731 2721 2707 2710 2699 2686 2674 2675 2668 2673 2679 2679 2694 2725 2738 2742 2774 2816 2833 2850 2872 2905 2947 2983 3053 3091 3124 3158 3180 3191 3198 3202 3203 3195 3184 3147 3107 3098 3074 3036 3017 2999 2984 2982 2978 2992 2984 3003 3012 3037 3035 3019 2975 2937 2911 2884 2852 2834 2806 2761 2745 2733 2730 2717 2723 2727 2739 2734 2721 2711 2687 2664 2644 2615 2596 2585 2575 2566 2565 2564 2565 2554 2517 2512 2482 2472 2461 2442 2415 2396 2369 2341 2315 2293 2249 2219 2188 2163 2138 2120 2116 2108 2087 2068 2046 2024 2002 1991 1981 1976 1970 1951 1911 1912 1918 1914 1890 1878 1855 1824 1810 1806 1796 1789 1785 1783 1783 1778 1775 1770 1771 1775 1785 1792 1818 1835 1857 1883 1897 1911 1927 1954 1976 2005 2041 2063 2091 2116 2149 2179 2205 2237 2257 2270 2289 0 0 0 0 0 0 0 0 0 0 0
0 0 2460 2429 2418 2407 2413 2440 2459 2476 2489 2476 2461 2451 2425 2412 2407 2411 2409 2412 2421 2432 2439 2459 2461 2487 2503 2520 2543 2552 2559 2552 2543 2524 2491 2477 2466 2444 2447 2441 2439 2446 2433 2406 2364 2338 2327 2340 2369 2384 2401 2416 2425 2412 2406 2379 2360 2329 2311 2295 2295 2298 2310 2346 2377 2410 2435 2445 2432 2419 2404 2391 2396 2409 2393 2404 2400 2404 2407 2411 2419 2443 2455 2458 2457 2446 2429 2440 2466 2487 2500 2519 2529 2530 2533 2547 2557 2571 2580 2604 2624 2649 2696 2726 2759 2790 2804 2798 2773 2742 2720 2694 2686 2700 2709 2721 2719 2731 2768 2771 2740 2731 2718 2697 2697 2696 2702 2706 2708 2722 2760 2777 2797 2814 2834 2849 2870 2908 2918 2918 2921 2927 2932 2941 2973 2992 3019 3043 3085 3136 3165 3191 3219 3235 3233 3233 3233 3222 3212 3199 3194 3189 3185 3178 3174 3171 3174 3174 3168 3173 3168 3162 3195 3178 3169 3153 3138 3111 3099 3076 3048 3018 2932 2888 2868 2859 2822 2790 2775 2758 2726 2718 2700 2702 2713 2709 2705 2680 2668 2658 2650 2653 2642 2639 2662 2664 2677 2697 2711 2721 2747 2779 2807 2829 2857 2904 2958 2991 3059 3081 3089 3112 3114 3122 3140 3152 3173 3189 3176 3128 3103 3085 3051 3011 2990 2973 2934 2926 2937 2943 2965 2980 3001 3011 3015 2991 2968 2923 2903 2876 2844 2813 2790 2767 2733 2722 2701 2684 2683 2676 2686 2696 2693 2682 2670 2657 2641 2616 2567 2554 2540 2519 2512 2511 2507 2505 2505 2498 2481 2462 2447 2430 2411 2392 2371 2353 2303 2258 2238 2214 2187 2152 2133 2110 2101 2089 2069 2061 2031 2010 1998 1986 1979 1969 1945 1927 1901 1885 1886 1885 1864 1851 1842 1829 1812 1807 1802 1793 1790 1787 1778 1772 1774 1775 1776 1778 1778 1784 1814 1830 1846 1868 1890 1909 1922 1949 1982 2012 2041 2071 2096 2118 2150 2176 2206 2226 2254 2266 2285 0 0 0 0 0 0 0 0 0 0 0
0 0 2461 2446 2436 2430 2422 2436 2451 2467 2481 2471 2457 2442 2409 2402 2399 2403 2411 2414 2419 2421 2435 2447 2454 2483 2496 2513 2533 2532 2543 2545 2526 2516 2481 2456 2440 2432 2412 2418 2421 2404 2397 2387 2337 2317 2283 2295 2332 2360 2374 2398 2406 2406 2372 2355 2344 2319 2298 2275 2275 2285 2303 2325 2374 2408 2438 2431 2412 2395 2368 2364 2365 2368 2375 2375 2381 2384 2376 2384 2398 2410 2425 2435 2437 2430 2420 2434 2461 2484 2497 2497 2510 2518 2529 2541 2546 2558 2576 2595 2620 2645 2678 2718 2751 2780 2803 2778 2758 2744 2713 2690 2674 2690 2706 2690 2695 2708 2725 2741 2720 2712 2698 2687 2686 2685 2686 2685 2686 2712 2728 2754 2775 2797 2823 2843 2865 2892 2909 2915 2918 2925 2932 2940 2949 2979 3002 3025 3064 3115 3143 3159 3169 3191 3217 3225 3232 3234 3229 3215 3202 3196 3194 3198 3191 3211 3204 3209 3211 3214 3217 3214 3212 3189 3180 3170 3156 3159 3145 3133 3093 3049 3008 2939 2889 2870 2847 2799 2784 2778 2754 2721 2702 2688 2677 2666 2672 2672 2653 2645 2642 2620 2616 2617 2622 2644 2659 2670 2697 2709 2735 2768 2808 2836 2860 2928 2968 2995 3029 3062 3075 3078 3086 3100 3113 3109 3139 3154 3153 3121 3091 3063 3049 2998 2978 2961 2925 2896 2903 2907 2924 2943 2964 2979 2998 2978 2964 2914 2901 2875 2854 2822 2779 2750 2719 2700 2694 2683 2665 2665 2667 2649 2646 2651 2645 2632 2614 2583 2560 2546 2524 2510 2492 2472 2472 2467 2467 2463 2458 2449 2437 2421 2399 2381 2361 2322 2275 2252 2231 2209 2165 2142 2128 2103 2095 2078 2065 2046 2033 2017 1997 1977 1969 1956 1938 1914 1891 1877 1879 1865 1855 1839 1834 1824 1821 1812 1811 1804 1797 1795 1790 1784 1781 1778 1783 1787 1782 1783 1810 1823 1840 1856 1890 1903 1921 1955 1978 2009 2036 2066 2097 2118 2149 2175 2205 2220 2255 2267 2281 0 0 0 0 0 0 0 0 0 0 0
0 0 2475 2471 2451 2443 2430 2434 2447 2472 2477 2463 2450 2429 2408 2385 2393 2398 2412 2424 2423 2419 2420 2431 2444 2460 2478 2492 2505 2526 2533 2534 2519 2507 2475 2443 2413 2399 2392 2393 2388 2389 2390 2361 2323 2305 2270 2275 2293 2319 2364 2366 2373 2364 2352 2341 2332 2307 2267 2248 2244 2261 2284 2308 2380 2428 2440 2435 2411 2380 2358 2333 2336 2341 2338 2346 2348 2350 2365 2375 2378 2390 2406 2396 2399 2391 2403 2424 2444 2460 2466 2477 2503 2516 2525 2521 2540 2553 2564 2586 2612 2641 2670 2714 2740 2765 2796 2774 2748 2728 2696 2678 2658 2663 2675 2677 2684 2694 2712 2726 2706 2698 2693 2675 2662 2668 2664 2661 2681 2696 2717 2745 2763 2780 2798 2830 2856 2880 2899 2908 2914 2920 2931 2936 2944 2957 2976 2997 3005 3040 3068 3091 3122 3155 3202 3218 3234 3238 3241 3247 3244 3233 3224 3227 3232 3224 3228 3224 3226 3253 3261 3252 3245 3241 3231 3213 3198 3182 3157 3138 3113 3061 3018 2973 2909 2887 2861 2839 2795 2778 2762 2730 2709 2696 2685 2664 2654 2654 2636 2622 2614 2614 2614 2611 2615 2632 2638 2654 2667 2697 2718 2743 2798 2833 2865 2906 2952 2980 2997 3035 3037 3029 3034 3060 3081 3096 3132 3149 3149 3126 3080 3044 3027 2997 2958 2928 2905 2887 2881 2888 2899 2916 2912 2935 2955 2946 2936 2924 2896 2877 2857 2815 2773 2744 2725 2689 2683 2669 2657 2653 2643 2633 2628 2631 2628 2613 2580 2561 2549 2518 2503 2496 2468 2464 2460 2455 2452 2452 2435 2424 2414 2397 2381 2353 2337 2312 2268 2237 2225 2188 2151 2127 2115 2099 2082 2069 2057 2039 2030 2017 2009 1975 1960 1946 1917 1894 1887 1878 1863 1857 1848 1840 1834 1832 1859 1863 1850 1847 1841 1826 1818 1808 1798 1788 1787 1788 1790 1794 1796 1818 1833 1845 1879 1900 1922 1950 1981 2008 2032 2064 2089 2112 2128 2177 2203 2226 2250 2264 2277 0 0 0 0 0 0 0 0 0 0 0
0 0 2499 2485 2472 2457 2442 2432 2452 2472 2472 2455 2434 2421 2392 2379 2386 2396 2412 2419 2417 2415 2414 2418 2432 2447 2462 2478 2494 2518 2523 2516 2506 2486 2462 2437 2405 2387 2383 2375 2354 2353 2353 2346 2317 2284 2267 2270 2286 2311 2341 2334 2329 2325 2311 2314 2299 2275 2261 2242 2238 2251 2274 2305 2358 2415 2430 2427 2400 2373 2340 2328 2324 2328 2322 2322 2303 2307 2323 2348 2358 2370 2386 2376 2369 2377 2400 2420 2437 2443 2446 2456 2483 2502 2511 2518 2537 2550 2562 2576 2607 2635 2661 2700 2734 2756 2783 2757 2744 2726 2683 2661 2653 2639 2652 2659 2663 2674 2690 2701 2692 2673 2676 2669 2650 2648 2652 2655 2664 2680 2697 2721 2756 2774 2791 2827 2853 2864 2880 2900 2909 2910 2915 2927 2935 2947 2963 2984 2989 3022 3031 3055 3075 3107 3121 3174 3207 3232 3240 3250 3256 3257 3266 3263 3262 3268 3273 3277 3281 3273 3275 3271 3287 3279 3285 3271 3243 3214 3190 3165 3145 3098 3041 2986 2920 2890 2874 2859 2812 2789 2766 2747 2733 2712 2692 2669 2651 2642 2629 2611 2595 2587 2591 2593 2590 2609 2632 2643 2659 2694 2710 2728 2763 2810 2847 2882 2931 2956 2989 3016 3019 3020 2999 3020 3035 3053 3093 3141 3132 3111 3073 3049 3026 2999 2943 2915 2891 2879 2873 2872 2873 2875 2899 2907 2919 2924 2926 2919 2892 2883 2865 2828 2777 2742 2721 2687 2672 2660 2643 2637 2628 2619 2606 2598 2597 2581 2561 2546 2535 2505 2485 2480 2471 2452 2441 2436 2427 2423 2420 2417 2404 2384 2359 2333 2308 2295 2274 2230 2215 2185 2149 2127 2119 2105 2067 2061 2048 2024 2013 2010 1999 1965 1953 1939 1906 1891 1876 1871 1860 1856 1858 1865 1881 1887 1877 1882 1873 1864 1867 1867 1864 1853 1840 1835 1812 1803 1800 1798 1797 1817 1838 1852 1867 1898 1917 1947 1976 2008 2033 2048 2087 2105 2114 2153 2173 2196 2221 2246 2263 0 0 0 0 0 0 0 0 0 0 0
0 0 2513 2498 2483 2466 2462 2449 2460 2478 2468 2436 2411 2397 2387 2377 2379 2394 2415 2413 2406 2399 2396 2401 2416 2433 2456 2469 2488 2503 2510 2484 2476 2456 2437 2415 2380 2367 2366 2357 2345 2339 2341 2337 2317 2285 2260 2250 2267 2284 2295 2306 2310 2307 2293 2288 2259 2243 2225 2225 2229 2245 2271 2303 2349 2400 2422 2423 2385 2361 2339 2312 2289 2294 2291 2297 2292 2300 2315 2334 2335 2343 2346 2321 2320 2355 2389 2410 2431 2436 2441 2455 2479 2502 2512 2518 2526 2547 2562 2576 2606 2631 2660 2683 2736 2763 2773 2750 2724 2702 2686 2647 2636 2636 2639 2652 2656 2655 2665 2678 2677 2653 2650 2647 2645 2630 2627 2640 2656 2674 2673 2693 2728 2746 2772 2813 2832 2859 2873 2893 2904 2908 2907 2909 2917 2920 2937 2959 2969 2979 3013 3039 3059 3089 3091 3135 3148 3177 3208 3239 3261 3270 3276 3278 3279 3285 3288 3315 3320 3322 3333 3346 3333 3320 3300 3283 3257 3232 3191 3168 3162 3102 3057 3020 2986 2929 2899 2865 2828 2798 2774 2754 2739 2730 2714 2694 2668 2649 2634 2606 2587 2580 2576 2578 2584 2592 2615 2627 2647 2666 2697 2714 2759 2802 2832 2857 2903 2961 2978 2994 2977 2975 2982 2991 3024 3039 3059 3073 3077 3078 3071 3052 3028 3001 2932 2910 2888 2875 2865 2858 2856 2854 2859 2869 2886 2883 2902 2911 2897 2883 2861 2827 2772 2742 2714 2682 2665 2643 2631 2631 2624 2617 2608 2591 2577 2564 2546 2535 2511 2494 2477 2471 2463 2445 2436 2424 2416 2406 2401 2388 2373 2361 2346 2325 2300 2282 2268 2215 2191 2166 2148 2122 2112 2094 2066 2058 2045 2028 2015 2008 1992 1966 1944 1920 1900 1879 1873 1873 1868 1874 1878 1918 1921 1923 1910 1918 1902 1891 1886 1885 1885 1875 1861 1859 1842 1828 1813 1801 1811 1825 1845 1861 1875 1899 1918 1945 1964 2004 2033 2045 2068 2084 2101 2125 2153 2173 2201 2226 2256 0 0 0 0 0 0 0 0 0 0 0
0 0 2530 2517 2499 2482 2466 2461 2476 2483 2460 2427 2395 2385 2375 2368 2369 2379 2401 2409 2399 2391 2388 2394 2402 2419 2438 2458 2470 2483 2478 2475 2465 2454 2405 2386 2351 2335 2336 2332 2320 2311 2317 2326 2319 2285 2256 2240 2242 2257 2269 2286 2280 2273 2261 2251 2239 2225 2209 2210 2219 2242 2278 2301 2346 2385 2407 2416 2393 2354 2328 2309 2287 2267 2258 2254 2275 2289 2302 2315 2322 2334 2329 2309 2312 2342 2373 2392 2410 2420 2440 2457 2475 2496 2509 2518 2526 2548 2563 2580 2598 2632 2661 2687 2742 2762 2774 2763 2717 2702 2676 2634 2628 2628 2627 2638 2647 2641 2651 2662 2664 2656 2638 2632 2633 2611 2598 2610 2626 2647 2666 2680 2715 2734 2748 2765 2813 2839 2858 2882 2900 2905 2905 2904 2903 2905 2926 2938 2944 2960 2981 2987 3019 3065 3074 3097 3133 3155 3183 3182 3214 3249 3278 3289 3306 3310 3317 3331 3350 3361 3375 3382 3363 3335 3308 3272 3248 3237 3188 3166 3155 3114 3070 3034 2990 2960 2932 2912 2885 2822 2796 2759 2735 2727 2714 2698 2673 2657 2637 2602 2583 2576 2571 2577 2582 2590 2607 2607 2625 2645 2680 2699 2734 2779 2810 2848 2889 2947 2971 2953 2948 2933 2947 2961 2991 3017 3026 3048 3053 3062 3066 3039 3018 2993 2960 2914 2886 2866 2859 2852 2849 2850 2854 2852 2851 2853 2862 2874 2879 2869 2848 2827 2783 2744 2713 2696 2666 2644 2635 2624 2615 2608 2606 2591 2576 2565 2544 2518 2486 2474 2455 2449 2443 2437 2421 2407 2399 2389 2383 2351 2343 2330 2322 2304 2279 2261 2237 2219 2181 2161 2151 2118 2101 2093 2077 2057 2044 2027 2016 2007 1997 1974 1944 1913 1891 1885 1890 1909 1926 1929 1937 1944 1932 1941 1940 1960 1955 1947 1935 1925 1919 1911 1902 1883 1858 1841 1822 1817 1818 1837 1856 1879 1896 1901 1922 1942 1963 2002 2029 2040 2054 2069 2087 2110 2130 2146 2177 2210 2248 0 0 0 0 0 0 0 0 0 0 0
0 0 2537 2516 2498 2483 2472 2477 2485 2463 2448 2430 2404 2391 2380 2371 2366 2370 2380 2388 2381 2384 2389 2390 2399 2419 2433 2455 2455 2459 2457 2456 2447 2430 2400 2370 2349 2329 2301 2307 2282 2286 2290 2301 2300 2281 2259 2235 2231 2242 2257 2268 2261 2244 2241 2222 2197 2190 2192 2209 2224 2247 2277 2304 2355 2381 2409 2403 2386 2346 2326 2312 2293 2262 2252 2244 2262 2260 2274 2287 2295 2302 2300 2298 2315 2336 2356 2382 2403 2419 2438 2452 2472 2489 2505 2515 2525 2545 2561 2577 2597 2629 2668 2702 2731 2769 2766 2749 2711 2686 2668 2641 2622 2624 2621 2617 2614 2618 2621 2641 2640 2640 2630 2621 2620 2607 2586 2595 2612 2628 2642 2662 2675 2716 2740 2758 2801 2824 2837 2844 2872 2885 2894 2895 2892 2887 2893 2920 2934 2946 2970 2948 2980 3018 3030 3042 3062 3108 3129 3156 3187 3225 3255 3283 3285 3308 3329 3348 3374 3403 3405 3398 3360 3325 3299 3256 3226 3208 3189 3143 3119 3096 3048 3015 2993 2974 2943 2913 2881 2845 2813 2777 2752 2728 2712 2693 2671 2656 2632 2614 2590 2576 2574 2568 2574 2580 2589 2596 2611 2633 2669 2692 2718 2747 2813 2838 2868 2913 2921 2930 2926 2922 2923 2950 2962 2984 2985 2990 3013 3032 3043 3040 3022 2990 2964 2922 2897 2859 2848 2852 2851 2851 2851 2846 2841 2838 2841 2841 2829 2840 2835 2821 2800 2764 2741 2714 2677 2660 2635 2622 2607 2599 2593 2592 2576 2566 2549 2501 2482 2468 2448 2445 2438 2425 2395 2377 2371 2359 2345 2331 2321 2313 2300 2290 2265 2240 2222 2203 2179 2159 2140 2118 2094 2084 2069 2053 2037 2032 2023 2004 1994 1981 1944 1900 1894 1892 1916 1936 1953 1964 1974 1974 1970 1970 1964 1978 1974 1969 1954 1947 1949 1942 1917 1911 1901 1871 1854 1831 1827 1839 1861 1880 1895 1908 1928 1941 1965 1987 2014 2032 2047 2075 2093 2108 2120 2145 2163 2199 2238 0 0 0 0 0 0 0 0 0 0 0
0 0 0 2509 2493 2483 2477 2480 2474 2457 2441 2423 2414 2396 2387 2379 2372 2367 2372 2382 2366 2375 2384 2380 2394 2412 2426 2443 2447 2449 2448 2444 2436 2419 2388 2353 2327 2293 2290 2278 2273 2266 2268 2287 2290 2277 2254 2227 2205 2207 2204 2221 2228 2222 2217 2204 2181 2180 2194 2221 2245 2262 2285 2333 2372 2393 2416 2399 2377 2352 2323 2307 2286 2262 2247 2238 2234 2250 2262 2278 2282 2283 2264 2273 2294 2322 2342 2371 2399 2419 2429 2445 2467 2488 2516 2529 2537 2548 2567 2582 2605 2647 2680 2711 2744 2766 2757 2729 2698 2679 2655 2641 2625 2615 2616 2615 2605 2605 2611 2616 2620 2618 2614 2589 2577 2574 2577 2582 2597 2608 2631 2641 2662 2682 2703 2732 2753 2779 2795 2827 2864 2882 2889 2891 2879 2874 2868 2884 2898 2909 2924 2920 2943 2988 3008 3021 3018 3034 3073 3089 3118 3166 3203 3226 3239 3280 3320 3348 3361 3379 3393 3372 3324 3295 3264 3228 3204 3187 3184 3132 3094 3050 3042 3007 2992 2970 2943 2915 2888 2869 2822 2786 2761 2739 2724 2702 2681 2650 2634 2617 2594 2579 2570 2568 2574 2571 2574 2583 2596 2624 2647 2671 2707 2739 2792 2831 2856 2885 2899 2899 2895 2889 2905 2904 2935 2962 2970 2971 3007 3002 3012 3018 3012 2992 2971 2947 2893 2858 2853 2852 2855 2854 2851 2845 2839 2837 2815 2808 2807 2818 2825 2815 2798 2781 2768 2736 2722 2686 2659 2629 2606 2599 2591 2586 2573 2566 2549 2507 2490 2473 2456 2445 2433 2415 2382 2369 2359 2335 2321 2306 2293 2280 2270 2262 2258 2230 2215 2194 2175 2143 2129 2107 2083 2064 2054 2045 2032 2022 2015 1999 1986 1957 1922 1904 1908 1935 1955 1970 1972 1984 1993 2000 1990 2023 2002 2006 2010 2005 1995 1983 1974 1967 1940 1928 1915 1904 1882 1847 1840 1846 1858 1875 1897 1911 1926 1941 1956 1979 2006 2027 2047 2090 2100 2108 2114 2143 2162 2198 2218 0 0 0 0 0 0 0 0 0 0 0
0 0 0 2502 2493 2491 2489 2496 2478 2457 2435 2421 2414 2407 2392 2385 2368 2357 2363 2367 2364 2374 2379 2377 2398 2411 2410 2411 2411 2413 2414 2412 2409 2405 2388 2349 2315 2285 2262 2261 2252 2240 2244 2266 2280 2274 2247 2227 2210 2193 2179 2196 2187 2173 2172 2166 2169 2180 2198 2226 2256 2276 2318 2377 2412 2430 2424 2385 2367 2341 2313 2297 2280 2265 2232 2222 2220 2231 2239 2248 2253 2247 2257 2267 2291 2320 2346 2370 2397 2414 2427 2445 2468 2492 2512 2534 2542 2554 2570 2588 2618 2653 2701 2731 2762 2776 2749 2725 2702 2675 2657 2637 2618 2600 2596 2596 2606 2595 2589 2610 2614 2608 2602 2581 2568 2571 2566 2565 2570 2590 2610 2628 2650 2671 2698 2718 2725 2752 2779 2803 2834 2874 2882 2877 2870 2869 2859 2863 2867 2885 2894 2898 2900 2908 2943 2979 3001 3011 3046 3067 3087 3107 3145 3168 3200 3237 3265 3289 3304 3348 3373 3357 3306 3279 3249 3218 3169 3147 3143 3098 3065 3037 3026 3002 2967 2940 2902 2882 2871 2851 2826 2803 2778 2760 2729 2713 2687 2657 2626 2611 2598 2575 2561 2558 2568 2566 2573 2575 2593 2612 2629 2659 2690 2726 2760 2808 2842 2880 2896 2883 2876 2851 2874 2887 2906 2915 2926 2935 2961 2983 2991 3002 3008 2994 2968 2945 2897 2858 2853 2856 2854 2852 2849 2845 2838 2837 2811 2790 2783 2780 2796 2806 2803 2794 2782 2752 2735 2710 2685 2668 2627 2597 2589 2575 2565 2559 2546 2523 2490 2474 2460 2443 2414 2390 2379 2349 2339 2324 2316 2291 2281 2269 2262 2255 2256 2219 2195 2177 2156 2130 2121 2103 2075 2038 2020 2013 2007 2001 1998 1986 1971 1936 1907 1909 1928 1961 1977 2004 2004 2012 2025 2033 2043 2039 2022 2030 2025 2053 2049 2039 2019 1998 1980 1965 1942 1917 1898 1874 1846 1855 1870 1888 1899 1907 1919 1942 1961 1981 2011 2027 2051 2081 2104 2105 2117 2145 2171 2204 2222 0 0 0 0 0 0 0 0 0 0 0
0 0 0 2500 2491 2494 2500 2492 2487 2475 2434 2419 2409 2403 2388 2378 2362 2355 2349 2359 2367 2374 2376 2391 2399 2396 2394 2389 2387 2395 2380 2379 2374 2375 2359 2332 2310 2285 2261 2242 2235 2228 2244 2255 2261 2263 2247 2232 2206 2174 2168 2177 2183 2166 2159 2150 2167 2186 2204 2221 2269 2306 2341 2394 2428 2444 2427 2371 2342 2320 2293 2276 2253 2230 2201 2208 2214 2218 2218 2218 2230 2240 2257 2275 2298 2329 2350 2375 2402 2413 2427 2442 2481 2504 2515 2530 2540 2555 2566 2593 2629 2666 2718 2743 2778 2793 2757 2733 2705 2673 2657 2637 2622 2598 2583 2583 2570 2579 2570 2576 2597 2597 2589 2564 2570 2564 2553 2559 2567 2570 2594 2609 2632 2651 2672 2693 2709 2739 2765 2793 2826 2850 2856 2857 2854 2850 2841 2837 2845 2871 2877 2885 2885 2871 2898 2924 2957 2976 2995 3029 3058 3093 3129 3149 3181 3191 3201 3237 3266 3298 3332 3318 3304 3256 3235 3213 3153 3130 3092 3066 3031 3007 2985 2963 2940 2912 2891 2875 2862 2842 2808 2797 2786 2776 2732 2716 2685 2650 2623 2610 2595 2577 2562 2555 2555 2559 2561 2567 2590 2603 2620 2641 2687 2731 2754 2791 2816 2833 2853 2845 2847 2841 2849 2883 2879 2893 2894 2906 2930 2959 2968 2973 2990 2989 2968 2943 2888 2856 2843 2844 2837 2845 2847 2850 2853 2830 2801 2780 2769 2759 2758 2774 2775 2785 2796 2773 2754 2729 2691 2676 2651 2609 2608 2588 2572 2551 2541 2530 2487 2478 2464 2450 2408 2391 2362 2325 2313 2300 2292 2272 2266 2263 2258 2250 2246 2222 2175 2157 2137 2111 2098 2079 2065 2030 2004 1997 1991 1989 1973 1957 1916 1910 1910 1945 1960 1975 1992 2016 2020 2026 2065 2073 2071 2065 2070 2074 2061 2064 2076 2078 2060 2018 2021 1997 1977 1950 1929 1908 1864 1854 1863 1878 1894 1905 1922 1935 1965 1982 1998 2030 2054 2077 2100 2107 2116 2137 2179 2202 2216 0 0 0 0 0 0 0 0 0 0 0
0 0 0 2507 2503 2504 2504 2490 2481 2474 2456 2436 2418 2398 2376 2365 2356 2350 2344 2355 2360 2372 2385 2391 2398 2387 2380 2363 2349 2354 2360 2363 2356 2354 2355 2333 2302 2278 2254 2219 2211 2204 2219 2238 2247 2252 2244 2226 2213 2186 2140 2149 2155 2146 2142 2148 2161 2187 2207 2242 2305 2343 2379 2406 2434 2434 2398 2356 2331 2312 2289 2258 2229 2198 2176 2179 2184 2185 2189 2201 2217 2240 2264 2287 2312 2340 2358 2381 2400 2420 2440 2453 2493 2510 2522 2532 2567 2575 2599 2633 2656 2691 2733 2767 2781 2792 2758 2737 2710 2696 2664 2641 2621 2598 2585 2581 2568 2566 2566 2565 2585 2572 2564 2557 2548 2538 2532 2543 2546 2562 2577 2603 2619 2621 2653 2657 2692 2711 2746 2781 2810 2840 2841 2846 2845 2841 2830 2817 2822 2830 2841 2854 2858 2866 2885 2898 2938 2963 2967 2987 3011 3047 3071 3098 3130 3153 3177 3204 3237 3278 3288 3295 3270 3225 3207 3182 3147 3106 3078 3054 3017 2991 2960 2928 2910 2897 2875 2848 2835 2831 2820 2802 2792 2780 2737 2706 2682 2664 2630 2607 2587 2572 2556 2550 2553 2556 2555 2560 2576 2590 2605 2633 2686 2725 2745 2765 2798 2813 2807 2811 2817 2811 2804 2833 2841 2861 2882 2899 2919 2938 2945 2953 2972 2979 2963 2936 2895 2852 2834 2822 2813 2816 2809 2829 2811 2791 2770 2746 2747 2742 2750 2750 2756 2764 2778 2790 2781 2760 2726 2702 2680 2639 2618 2599 2581 2551 2541 2526 2506 2475 2465 2457 2432 2390 2368 2340 2312 2297 2279 2264 2253 2243 2229 2215 2207 2185 2167 2151 2131 2106 2080 2065 2042 2006 1988 1977 1971 1966 1954 1933 1914 1908 1928 1957 1992 2001 2020 2042 2053 2063 2078 2094 2089 2085 2109 2124 2135 2129 2141 2131 2107 2079 2044 2017 1996 1970 1960 1926 1896 1873 1868 1870 1888 1905 1923 1930 1957 1970 1982 2022 2050 2070 2085 2107 2116 2130 2168 2192 2209 2231 0 0 0 0 0 0 0 0 0 0
0 0 0 2530 2519 2515 2513 2512 2477 2465 2454 2436 2423 2405 2385 2359 2348 2344 2341 2350 2354 2365 2386 2391 2391 2377 2360 2329 2327 2326 2322 2316 2308 2312 2326 2326 2293 2270 2249 2220 2190 2172 2174 2195 2210 2214 2215 2216 2192 2158 2139 2137 2142 2136 2138 2153 2166 2194 2217 2262 2304 2357 2388 2414 2406 2382 2343 2326 2279 2263 2250 2238 2209 2183 2169 2176 2182 2189 2201 2213 2223 2234 2274 2292 2313 2343 2361 2382 2403 2436 2455 2473 2506 2530 2550 2561 2579 2594 2620 2644 2670 2704 2732 2756 2769 2773 2761 2737 2717 2699 2666 2645 2624 2606 2584 2578 2566 2546 2538 2537 2539 2552 2552 2549 2538 2520 2505 2512 2523 2542 2553 2573 2587 2599 2637 2654 2676 2703 2730 2764 2790 2812 2819 2817 2815 2817 2815 2806 2811 2824 2814 2827 2839 2851 2869 2889 2918 2936 2957 2973 2999 3025 3050 3061 3084 3110 3140 3177 3215 3245 3275 3271 3245 3222 3191 3153 3122 3086 3058 3031 3004 2971 2944 2926 2902 2891 2869 2849 2837 2822 2813 2804 2793 2775 2751 2712 2678 2660 2632 2604 2581 2565 2551 2539 2537 2548 2550 2553 2564 2585 2603 2626 2669 2698 2722 2757 2778 2781 2794 2803 2807 2796 2802 2804 2814 2821 2831 2868 2884 2901 2934 2946 2976 2979 2956 2933 2900 2852 2823 2801 2791 2778 2791 2801 2789 2767 2754 2717 2713 2718 2716 2714 2723 2732 2747 2781 2779 2768 2749 2737 2717 2697 2661 2629 2611 2574 2551 2530 2512 2477 2461 2449 2435 2409 2378 2354 2329 2311 2289 2264 2246 2231 2219 2202 2184 2172 2153 2127 2108 2089 2072 2058 2033 2021 1979 1964 1955 1941 1931 1915 1911 1924 1941 1968 2000 2012 2036 2061 2082 2100 2112 2129 2121 2122 2130 2153 2166 2188 2173 2184 2165 2139 2081 2048 2029 1990 1959 1931 1902 1874 1872 1865 1871 1905 1921 1933 1953 1962 1980 2006 2043 2056 2078 2090 2104 2126 2148 2181 2201 2217 0 0 0 0 0 0 0 0 0 0
0 0 0 2537 2530 2526 2525 2507 2485 2464 2449 2437 2416 2406 2388 2361 2346 2340 2336 2343 2362 2381 2387 2384 2376 2356 2336 2322 2313 2309 2301 2299 2272 2287 2294 2294 2274 2244 2235 2215 2163 2144 2143 2160 2160 2177 2181 2166 2153 2145 2131 2126 2133 2134 2140 2151 2172 2191 2244 2291 2345 2379 2410 2414 2413 2360 2325 2298 2260 2232 2210 2198 2177 2154 2147 2170 2187 2203 2213 2224 2233 2260 2285 2303 2322 2342 2370 2391 2410 2442 2458 2474 2499 2542 2560 2577 2601 2621 2634 2648 2672 2693 2720 2735 2747 2757 2740 2718 2702 2677 2648 2635 2614 2604 2583 2576 2562 2552 2534 2528 2519 2527 2520 2515 2522 2518 2507 2502 2518 2536 2541 2545 2567 2577 2591 2627 2651 2677 2703 2747 2786 2804 2806 2783 2776 2778 2786 2797 2801 2800 2801 2816 2816 2839 2865 2868 2899 2914 2924 2950 2977 3000 3016 3049 3067 3092 3125 3155 3193 3211 3231 3236 3219 3205 3166 3129 3116 3084 3049 3026 2984 2957 2936 2922 2911 2889 2872 2858 2840 2827 2817 2812 2802 2783 2757 2716 2685 2669 2657 2610 2588 2570 2546 2535 2530 2531 2536 2552 2563 2577 2591 2619 2653 2694 2707 2745 2745 2750 2760 2761 2764 2780 2785 2784 2789 2806 2824 2850 2845 2867 2892 2937 2961 2978 2967 2937 2900 2870 2823 2799 2787 2775 2776 2781 2756 2735 2712 2697 2689 2698 2698 2701 2703 2713 2719 2741 2775 2772 2767 2747 2734 2714 2678 2644 2644 2625 2577 2550 2523 2490 2467 2451 2439 2417 2390 2363 2340 2326 2303 2277 2248 2226 2213 2202 2177 2156 2146 2113 2082 2067 2055 2033 2021 2001 1970 1959 1940 1934 1926 1915 1925 1952 1974 1988 2011 2045 2063 2073 2096 2107 2117 2131 2157 2153 2160 2182 2201 2228 2229 2212 2186 2158 2092 2065 2045 2023 1979 1957 1938 1900 1883 1881 1878 1903 1919 1932 1953 1964 1981 2003 2033 2049 2065 2080 2102 2124 2142 2163 2181 2203 0 0 0 0 0 0 0 0 0 0
0 0 0 2547 2539 2527 2513 2499 2486 2464 2447 2435 2407 2397 2385 2370 2348 2336 2325 2343 2370 2387 2388 2378 2355 2343 2325 2308 2291 2286 2277 2263 2260 2273 2290 2286 2255 2225 2202 2173 2135 2119 2114 2119 2144 2162 2171 2150 2141 2121 2114 2113 2116 2123 2139 2158 2181 2200 2253 2307 2352 2384 2389 2376 2353 2313 2293 2267 2241 2218 2204 2186 2164 2138 2133 2156 2190 2204 2222 2248 2257 2269 2287 2316 2335 2350 2385 2405 2422 2441 2465 2484 2504 2537 2566 2583 2601 2623 2620 2631 2645 2660 2671 2695 2725 2736 2737 2714 2694 2669 2644 2628 2610 2599 2581 2566 2558 2552 2527 2523 2514 2512 2504 2503 2507 2500 2494 2489 2491 2514 2520 2534 2554 2568 2573 2581 2629 2654 2683 2731 2763 2781 2777 2768 2758 2759 2770 2753 2770 2769 2774 2786 2795 2814 2838 2856 2879 2902 2914 2943 2959 2959 2981 2997 3031 3056 3084 3135 3167 3189 3202 3216 3194 3179 3148 3135 3096 3067 3035 3007 2984 2956 2931 2926 2916 2896 2882 2869 2861 2843 2843 2830 2816 2794 2763 2730 2702 2684 2671 2632 2605 2584 2570 2544 2532 2529 2531 2552 2556 2564 2583 2611 2638 2670 2700 2724 2731 2740 2744 2743 2728 2740 2736 2735 2748 2765 2786 2815 2831 2854 2882 2928 2948 2963 2960 2932 2892 2871 2830 2808 2786 2776 2770 2775 2750 2718 2704 2695 2686 2681 2686 2681 2680 2694 2704 2717 2729 2755 2762 2761 2752 2733 2720 2678 2653 2635 2588 2565 2550 2519 2480 2460 2440 2410 2395 2379 2355 2323 2297 2280 2253 2224 2212 2192 2153 2145 2119 2081 2073 2059 2036 2016 1992 1971 1955 1924 1915 1916 1922 1924 1934 1948 1980 2001 2039 2075 2096 2115 2136 2153 2161 2179 2177 2175 2181 2198 2242 2268 2280 2259 2220 2192 2152 2082 2055 2028 1995 1966 1964 1952 1935 1915 1908 1901 1913 1928 1945 1964 1978 2002 2025 2042 2063 2077 2101 2123 2137 2152 2177 2199 0 0 0 0 0 0 0 0 0 0
0 0 0 2542 2528 2505 2488 2473 2459 2443 2433 2421 2407 2392 2387 2374 2345 2332 2325 2336 2371 2378 2373 2357 2348 2332 2320 2296 2279 2265 2257 2244 2238 2249 2264 2264 2244 2215 2187 2171 2144 2116 2102 2098 2112 2129 2143 2133 2119 2111 2108 2106 2107 2102 2118 2156 2182 2208 2274 2317 2353 2373 2374 2356 2328 2292 2249 2235 2221 2192 2173 2160 2138 2130 2130 2154 2187 2205 2219 2244 2276 2290 2307 2341 2355 2369 2385 2412 2431 2444 2471 2490 2504 2527 2555 2573 2583 2601 2608 2616 2631 2647 2662 2669 2711 2728 2727 2719 2681 2661 2648 2630 2614 2598 2585 2556 2550 2544 2530 2518 2518 2495 2472 2485 2491 2492 2490 2468 2478 2497 2506 2517 2537 2540 2554 2579 2621 2646 2679 2715 2739 2750 2746 2742 2724 2727 2739 2739 2747 2756 2766 2779 2779 2786 2813 2829 2851 2888 2896 2912 2928 2948 2972 2989 3000 3021 3043 3076 3122 3145 3160 3180 3182 3170 3151 3133 3097 3067 3032 3006 2990 2965 2931 2922 2912 2899 2887 2879 2874 2884 2864 2860 2831 2807 2780 2763 2717 2699 2689 2664 2616 2597 2575 2559 2543 2526 2525 2537 2546 2557 2579 2602 2625 2636 2663 2684 2691 2694 2700 2705 2710 2727 2715 2712 2736 2724 2748 2789 2815 2835 2862 2912 2935 2944 2950 2904 2880 2851 2811 2795 2782 2773 2762 2755 2745 2719 2706 2697 2688 2677 2668 2657 2648 2650 2667 2679 2708 2727 2732 2745 2746 2735 2734 2715 2689 2664 2623 2586 2565 2526 2484 2464 2438 2420 2384 2365 2349 2313 2291 2281 2264 2223 2215 2195 2152 2116 2094 2073 2048 2030 2006 1986 1973 1954 1939 1916 1910 1918 1929 1941 1956 1971 2012 2035 2058 2077 2108 2142 2168 2207 2210 2213 2227 2236 2248 2246 2272 2287 2298 2296 2226 2225 2211 2116 2086 2049 2024 2000 1985 1973 1958 1940 1917 1911 1923 1933 1950 1967 1984 2000 2016 2039 2057 2079 2100 2117 2125 2140 2170 2189 0 0 0 0 0 0 0 0 0 0
0 0 0 2511 2512 2495 2478 2458 2449 2419 2406 2399 2390 2381 2375 2367 2343 2327 2322 2334 2361 2357 2351 2340 2327 2318 2306 2285 2272 2257 2251 2238 2231 2239 2244 2243 2234 2221 2178 2159 2140 2117 2103 2091 2095 2109 2107 2108 2100 2096 2093 2096 2092 2094 2114 2155 2183 2212 2267 2312 2338 2348 2319 2306 2293 2268 2234 2225 2210 2176 2155 2130 2122 2121 2128 2150 2180 2195 2218 2237 2273 2292 2314 2360 2373 2392 2406 2433 2447 2459 2470 2494 2506 2529 2548 2552 2561 2573 2587 2597 2615 2633 2646 2661 2683 2724 2726 2722 2688 2663 2654 2641 2616 2600 2588 2561 2549 2541 2531 2520 2508 2499 2468 2458 2463 2465 2462 2456 2472 2488 2493 2508 2501 2520 2537 2561 2605 2635 2669 2699 2725 2723 2722 2719 2710 2697 2706 2717 2712 2732 2742 2760 2772 2781 2803 2818 2841 2848 2858 2880 2899 2934 2953 2972 2981 3009 3033 3051 3094 3094 3112 3120 3151 3157 3146 3125 3100 3069 3051 3017 2998 2988 2968 2957 2950 2942 2935 2928 2919 2909 2890 2869 2849 2812 2792 2772 2748 2728 2706 2683 2638 2601 2578 2565 2550 2534 2522 2528 2533 2545 2557 2589 2605 2625 2647 2657 2663 2653 2659 2661 2676 2687 2682 2674 2682 2713 2727 2773 2808 2812 2844 2874 2898 2908 2910 2882 2867 2836 2820 2791 2783 2765 2757 2742 2727 2715 2689 2681 2675 2667 2656 2651 2637 2626 2637 2634 2656 2676 2690 2694 2712 2728 2735 2724 2695 2679 2645 2600 2584 2549 2522 2478 2451 2424 2386 2365 2351 2331 2299 2278 2257 2225 2211 2189 2165 2114 2089 2066 2039 2011 1988 1980 1959 1946 1937 1921 1921 1923 1930 1950 1967 2001 2033 2059 2094 2112 2158 2189 2208 2231 2242 2247 2257 2283 2298 2316 2332 2350 2352 2338 2292 2249 2236 2171 2101 2082 2051 2031 2022 2003 1992 1955 1925 1914 1925 1936 1948 1959 1990 2001 2016 2037 2054 2071 2091 2115 2123 2136 2164 2185 0 0 0 0 0 0 0 0 0 0
0 0 0 2466 2482 2477 2458 2443 2429 2419 2396 2392 2378 2377 2361 2355 2347 2319 2319 2329 2347 2353 2347 2329 2317 2306 2284 2272 2258 2241 2231 2212 2203 2212 2234 2235 2224 2208 2166 2144 2123 2109 2099 2087 2080 2080 2091 2094 2091 2091 2085 2085 2086 2095 2115 2138 2185 2224 2274 2310 2327 2326 2303 2272 2255 2235 2205 2186 2163 2151 2135 2121 2115 2125 2134 2156 2175 2196 2222 2245 2279 2307 2337 2360 2381 2402 2414 2436 2451 2465 2483 2498 2500 2511 2532 2543 2556 2567 2581 2595 2605 2613 2629 2640 2665 2715 2721 2725 2714 2665 2655 2643 2612 2600 2590 2577 2552 2541 2530 2516 2509 2500 2476 2455 2450 2441 2440 2440 2449 2466 2474 2483 2487 2511 2533 2555 2583 2623 2657 2667 2672 2671 2670 2678 2675 2682 2688 2693 2697 2705 2724 2738 2755 2777 2789 2797 2811 2827 2859 2873 2894 2914 2921 2935 2948 2979 3006 3019 3047 3053 3094 3109 3133 3152 3135 3122 3101 3083 3062 3023 3011 3001 2992 2978 2972 2964 2979 2981 2981 2956 2930 2903 2884 2827 2799 2777 2766 2736 2705 2683 2638 2604 2578 2564 2553 2537 2523 2524 2527 2533 2535 2553 2564 2584 2603 2621 2624 2635 2642 2644 2650 2658 2649 2647 2655 2684 2711 2755 2786 2810 2828 2843 2873 2891 2896 2879 2840 2815 2794 2778 2772 2761 2757 2734 2718 2703 2678 2667 2662 2651 2631 2626 2616 2617 2629 2623 2628 2651 2633 2639 2659 2679 2699 2712 2713 2691 2657 2620 2595 2564 2541 2499 2467 2442 2411 2369 2352 2328 2296 2273 2255 2234 2194 2178 2159 2115 2091 2061 2043 2009 1982 1975 1953 1939 1931 1926 1923 1926 1936 1967 1996 2014 2032 2074 2108 2132 2188 2214 2243 2263 2277 2288 2299 2320 2339 2359 2401 2400 2427 2409 2381 2293 2253 2201 2141 2105 2077 2057 2035 2025 2015 1979 1945 1925 1926 1946 1954 1962 1992 2005 2018 2028 2057 2072 2084 2105 2113 2128 2143 2187 0 0 0 0 0 0 0 0 0 0
